-176.152 666.209 382.479
-171.013 660.104 378.859
-166.323 654.477 375.488
-170.580 655.173 375.726
-168.232 656.596 376.641
-146.183 658.037 378.605
-151.294 658.150 378.482
-163.260 645.794 370.131
-154.857 667.796 384.256
-170.887 646.456 370.077
-149.928 657.292 377.988
-160.967 648.128 371.737
-159.301 654.086 375.430
-159.968 640.588 367.005
-140.189 645.798 371.061
-147.494 637.305 365.373
-139.862 636.539 365.082
-157.144 627.697 358.800
-143.998 630.315 360.930
-147.624 629.592 360.386
-145.166 652.842 375.346
-142.585 650.697 374.127
-139.924 648.476 372.802
-135.008 651.710 374.899
-137.684 646.700 371.760
-135.725 645.226 370.866
-127.842 663.370 382.080
-123.062 657.820 378.786
-128.243 662.622 381.652
-139.990 650.327 373.898
-141.034 652.015 374.966
-135.719 636.281 365.253
-137.206 638.464 366.522
-132.426 635.781 365.006
-134.158 635.819 365.017
-134.426 638.496 366.686
-133.680 638.306 366.552
-131.003 633.668 363.764
-131.314 633.401 363.572
-142.818 666.627 384.013
-137.193 666.719 384.026
-140.064 672.009 387.352
-146.795 668.337 384.878
-136.958 670.512 386.456
-145.469 675.935 389.483
-142.356 674.981 389.070
-143.598 675.129 389.085
-144.044 675.020 388.994
-138.107 674.588 388.929
-136.085 670.188 386.217
-133.917 670.820 386.648
-143.728 677.004 390.145
-127.353 664.593 382.888
-119.655 657.187 378.478
-117.448 656.071 377.766
-116.232 654.236 376.610
-109.936 648.896 373.311
-114.055 642.008 369.166
-97.423 658.572 379.697
-98.841 637.946 367.089
-108.639 627.722 360.612
-128.569 628.080 360.336
-133.869 618.428 354.102
-139.773 624.503 357.500
-131.349 623.446 357.187
-129.285 621.032 355.778
-146.365 619.142 353.808
-142.754 617.090 352.670
-147.766 622.872 356.091
-115.073 613.112 351.490
-106.513 603.391 345.730
-96.261 617.227 354.896
-112.432 609.456 349.250
-109.368 596.203 341.216
-114.873 605.232 346.615
-115.311 595.806 340.706
-128.007 606.126 346.520
-145.986 615.565 351.524
-130.334 597.911 341.302
-136.344 594.761 338.959
-130.134 591.071 337.042
-122.908 592.346 338.215
-129.355 595.692 340.127
-112.040 592.948 339.214
-122.779 586.382 334.438
-121.499 587.283 335.057
-104.507 588.502 336.629
-105.294 594.565 340.355
-97.484 593.148 339.810
-101.010 586.576 335.609
-107.733 590.182 337.515
-114.467 587.942 335.870
-101.377 594.928 340.630
-128.425 583.267 332.173
-123.508 580.795 330.910
-125.852 562.878 319.115
-129.087 565.092 320.306
-127.023 567.279 321.895
-123.901 566.009 321.286
-128.810 568.130 322.314
-122.864 564.222 320.179
-135.522 570.221 323.436
-131.055 569.394 323.021
-129.570 567.195 321.646
-142.400 575.902 326.509
-144.426 576.969 327.106
-141.617 573.513 325.033
-152.839 582.412 330.078
-153.511 582.205 329.960
-144.931 575.819 326.263
-155.104 562.022 316.530
-158.439 578.647 327.231
-149.878 563.411 317.795
-160.181 574.032 324.062
-153.942 573.573 324.195
-144.298 563.632 318.283
-138.281 556.984 314.696
-158.368 585.975 332.030
-161.006 581.892 329.198
-162.571 589.117 333.786
-162.294 588.037 333.109
-165.701 587.148 332.326
-170.527 578.396 326.258
-165.118 588.239 333.069
-168.294 575.439 324.455
-165.979 590.711 334.546
-166.397 590.266 334.298
-176.322 584.774 329.963
-172.961 587.008 331.647
-166.916 589.133 333.484
-184.214 585.227 329.639
-186.454 595.295 336.024
-203.232 593.455 333.566
-198.755 605.146 341.671
-195.004 589.311 331.489
-190.611 608.884 344.707
-189.724 597.075 336.902
-190.801 584.424 328.597
-188.695 602.807 340.765
-189.993 579.825 325.585
-205.955 589.037 330.307
-196.718 581.202 325.863
-181.855 568.939 319.006
-210.905 568.417 315.641
-188.390 570.094 319.149
-198.189 571.165 318.928
-211.411 581.342 324.506
-218.424 579.263 322.363
-218.712 581.055 323.554
-206.169 583.081 326.225
-207.615 589.632 330.553
-207.356 585.563 327.785
-212.214 575.827 320.615
-220.950 582.852 324.553
-217.270 593.945 332.621
-218.712 568.042 314.445
-214.852 566.173 313.617
-215.617 563.601 311.689
-218.632 564.501 311.939
-232.757 558.656 305.995
-238.141 571.620 314.535
-234.468 559.746 306.597
-238.263 561.084 306.937
-237.589 562.290 307.927
-235.591 563.837 309.274
-245.192 566.846 310.165
-244.757 568.293 311.275
-239.303 580.742 320.865
-246.018 570.191 312.509
-243.478 570.143 312.731
-243.855 566.116 309.843
-239.123 547.402 296.870
-241.092 550.064 298.522
-237.333 544.922 295.320
-230.445 539.816 292.559
-249.154 542.516 291.763
-242.678 543.144 293.221
-253.101 550.739 297.182
-262.823 552.698 297.106
-260.790 555.212 299.358
-275.211 549.152 292.476
-273.174 543.902 288.938
-273.155 549.077 292.787
-277.555 560.418 300.661
-274.031 561.744 302.221
-259.996 567.016 308.238
-260.572 584.318 320.774
-260.055 579.713 317.550
-256.942 590.964 326.140
-258.200 600.088 332.456
-247.382 597.142 331.680
-257.258 607.479 337.794
-251.063 617.134 345.274
-252.099 617.621 345.479
-239.924 602.992 336.554
-241.555 605.144 337.840
-242.817 606.909 338.988
-247.950 612.494 342.295
-251.711 616.692 344.927
-275.597 617.905 343.237
-277.290 611.860 338.616
-277.391 606.349 334.584
-287.943 602.581 330.489
-284.348 608.797 335.448
-284.329 594.165 324.792
-285.659 597.887 327.399
-282.575 599.518 328.980
-272.342 622.914 347.119
-279.595 630.656 351.624
-265.666 633.025 354.823
-271.661 639.431 358.609
-262.132 628.515 352.019
-265.204 632.048 354.177
-294.268 623.819 345.077
-297.436 617.983 340.458
-308.264 614.308 336.310
-313.238 617.576 337.983
-298.026 633.148 351.229
-294.806 637.575 354.827
-278.434 647.088 363.295
-293.710 645.125 360.330
-280.259 649.402 364.688
-315.285 640.489 354.279
-312.148 647.810 359.923
-274.400 642.621 360.602
-264.417 640.339 360.081
-254.780 641.579 361.792
-262.556 649.615 366.551
-284.766 654.320 367.663
-268.143 655.517 370.101
-273.807 661.532 373.570
-271.598 672.127 381.010
-261.253 662.721 375.587
-252.519 663.930 377.039
-259.157 669.720 380.438
-258.156 677.690 385.792
-265.236 674.985 383.526
-239.979 676.478 386.067
-252.384 678.619 386.780
-245.602 657.883 373.477
-239.812 669.833 381.748
-229.028 659.213 375.466
-233.036 660.971 376.329
-240.800 653.830 371.143
-235.606 656.929 373.545
-233.641 681.743 389.771
-241.697 683.423 390.425
-255.458 690.405 394.325
-226.141 685.516 392.547
-237.360 696.300 398.962
-237.131 689.740 394.797
-242.315 701.304 402.019
-223.149 704.478 405.009
-222.082 695.498 399.213
-237.746 708.291 406.753
-228.418 700.794 402.283
-224.230 697.936 400.669
-231.177 706.139 405.680
-235.254 706.472 405.775
-225.900 710.045 408.430
-244.182 718.461 412.881
-237.326 718.367 413.175
-254.533 713.064 408.818
-261.656 701.468 401.108
-253.792 704.612 403.589
-261.680 707.260 404.682
-268.968 702.599 401.285
-272.892 721.922 413.340
-276.302 700.181 399.212
-278.398 707.048 403.570
-277.358 695.380 396.001
-263.998 692.984 395.481
-265.129 690.099 393.516
-267.174 725.228 415.787
-274.568 732.910 420.497
-278.995 737.578 422.909
-264.813 739.222 424.812
-259.900 734.224 422.031
-254.200 736.195 423.530
-271.162 729.331 418.313
-249.720 723.988 416.096
-249.657 724.414 416.342
-281.246 719.370 411.168
-283.427 715.712 408.718
-284.529 728.070 416.580
-286.941 734.498 420.517
-300.436 742.423 424.776
-305.556 726.895 414.374
-293.547 722.317 412.311
-298.939 727.874 415.534
-294.366 725.506 414.301
-301.377 731.608 417.786
-306.988 735.920 420.207
-305.840 735.318 419.899
-298.374 734.887 420.128
-287.435 716.047 408.766
-275.451 749.414 430.640
-271.156 752.123 432.530
-261.046 751.264 432.412
-263.064 750.749 432.140
-257.438 748.721 431.053
-264.260 751.652 432.565
-277.602 760.163 437.248
-285.496 757.892 435.456
-269.869 755.643 434.907
-276.453 756.632 435.086
-272.985 760.094 437.376
-265.021 758.607 436.817
-281.164 755.073 433.950
-289.301 762.970 438.467
-302.814 761.350 436.797
-288.234 768.089 441.708
-292.787 769.008 442.144
-279.684 775.549 446.792
-278.640 778.881 448.881
-299.237 758.469 435.303
-299.026 756.480 433.878
-300.343 760.027 436.030
-308.346 767.848 440.561
-301.584 774.601 445.222
-308.763 754.282 431.899
-313.465 754.057 431.537
-317.575 752.383 430.141
-322.123 742.071 423.091
-312.260 769.107 441.245
-311.922 769.273 441.323
-306.245 784.858 451.423
-318.015 777.201 445.957
-312.551 785.071 451.197
-329.382 768.450 439.719
-328.373 772.008 442.140
-340.287 758.772 432.676
-337.663 770.724 440.637
-341.483 779.270 445.915
-329.163 787.880 452.185
-330.222 803.901 462.341
-324.079 801.457 461.040
-323.677 802.799 462.005
-330.166 801.969 461.051
-320.194 803.861 462.670
-313.686 797.116 458.829
-312.246 797.343 458.990
-317.205 789.735 453.966
-348.242 790.026 452.441
-355.623 772.803 440.736
-358.429 789.697 451.535
-358.903 795.048 454.996
-349.742 808.129 463.921
-347.919 806.915 463.219
-350.087 807.556 463.524
-337.265 810.722 466.464
-338.137 811.988 466.994
-337.518 817.296 470.291
-340.525 811.846 466.738
-332.273 814.743 469.085
-349.867 825.721 475.011
-340.860 817.120 470.044
-354.827 814.140 467.440
-350.703 809.889 465.027
-355.953 813.366 466.958
-340.933 819.502 471.659
-368.830 808.718 463.152
-371.661 801.612 458.416
-375.013 809.647 463.306
-386.182 800.766 456.871
-376.617 811.782 464.744
-379.444 814.930 466.647
-381.831 817.705 468.212
-391.023 809.390 462.275
-367.940 821.277 471.312
-356.948 835.404 480.857
-371.090 827.886 475.310
-374.507 838.813 482.143
-389.020 824.930 472.473
-390.949 812.570 464.349
-392.258 828.461 474.575
-406.953 831.338 475.677
-395.503 831.969 476.741
-400.109 836.758 479.619
-402.524 839.520 481.252
-389.156 841.375 483.094
-383.077 842.537 484.140
-371.532 840.704 483.503
-392.279 855.588 491.994
-367.725 851.292 490.325
-369.537 846.316 487.192
-366.679 842.017 484.522
-405.369 842.709 483.061
-421.647 831.550 474.685
-426.386 846.471 484.250
-407.684 845.381 484.625
-423.271 840.365 480.430
-410.232 848.250 486.355
-415.800 853.918 489.750
-417.634 856.128 491.067
-419.851 870.212 499.977
-427.767 866.559 497.205
-422.980 861.605 494.291
-433.215 843.520 481.859
-433.212 856.570 490.358
-452.170 852.519 486.404
-441.056 851.495 486.464
-448.983 859.512 491.202
-431.372 838.215 478.411
-429.268 839.279 479.296
-432.374 871.343 500.019
-435.856 875.070 502.237
-436.824 876.473 503.059
-445.374 885.420 508.279
-440.201 880.113 505.184
-449.359 889.619 510.731
-454.357 870.258 497.840
-460.662 871.618 498.244
-454.844 865.592 494.725
-463.330 885.444 507.067
-461.811 880.417 503.933
-469.511 880.517 503.419
-468.918 873.501 498.734
-483.287 880.947 502.590
-475.635 886.830 507.090
-484.917 877.119 499.911
-478.223 878.333 501.336
-488.234 873.516 497.181
-478.067 873.685 498.208
-487.095 876.930 499.666
-469.315 856.667 487.534
-483.477 864.734 491.687
-483.015 867.092 493.299
-484.365 862.396 490.049
-503.831 859.567 486.009
-490.972 854.327 483.768
-499.265 863.328 489.176
-492.338 863.396 489.832
-479.838 850.290 482.212
-471.917 849.433 482.397
-471.163 840.895 476.764
-483.363 835.181 471.455
-458.811 835.804 474.399
-464.821 848.111 482.130
-453.342 843.571 480.208
-462.873 831.905 471.398
-443.398 836.311 476.265
-439.979 836.308 476.371
-450.753 826.168 468.543
-457.966 834.070 473.307
-471.024 829.621 468.998
-465.794 828.735 468.845
-470.179 825.509 466.133
-477.382 814.711 457.758
-477.514 817.683 459.788
-492.350 807.918 451.058
-483.127 803.857 449.279
-467.995 802.530 450.174
-462.953 805.543 452.833
-497.606 821.260 459.981
-509.436 828.012 463.305
-513.193 826.646 461.835
-508.610 811.970 451.897
-519.158 820.918 456.947
-505.838 810.939 451.584
-520.499 815.092 452.530
-522.791 821.036 456.550
-522.129 822.153 457.456
-521.436 804.571 444.687
-504.411 793.119 438.770
-494.417 786.558 435.330
-518.556 788.029 432.960
-498.310 782.577 431.902
-524.353 787.143 431.343
-509.563 786.176 432.917
-525.104 796.707 438.388
-527.041 802.436 442.272
-527.423 800.982 441.136
-545.765 795.973 434.384
-530.869 782.906 427.028
-536.965 770.334 416.291
-537.119 779.491 423.300
-550.316 782.832 423.360
-545.968 779.531 421.687
-547.887 784.257 424.960
-540.939 769.653 415.053
-536.014 766.219 413.133
-532.504 769.243 416.138
-523.319 766.972 416.040
-516.772 770.731 420.124
-515.115 771.648 421.043
-513.428 765.833 417.446
-510.704 765.646 417.639
-524.471 762.060 412.027
-521.003 759.138 410.472
-533.768 765.554 413.079
-527.587 763.722 412.815
-507.338 774.480 424.507
-495.347 773.353 425.448
-500.426 765.382 418.759
-490.466 776.373 428.419
-513.493 753.781 407.546
-496.609 756.240 412.481
-506.735 743.481 400.559
-506.298 741.121 398.876
-498.544 735.926 396.259
-526.433 752.687 404.138
-524.289 743.680 397.379
-517.182 736.161 392.941
-519.177 730.496 388.034
-528.792 715.775 374.247
-535.902 731.166 385.201
-532.264 714.611 372.490
-552.266 731.514 381.857
-543.731 748.145 397.252
-541.867 744.528 394.752
-543.332 743.495 393.597
-540.774 748.607 398.246
-549.726 752.784 399.757
-541.079 749.847 399.100
-548.177 754.556 401.479
-555.883 746.525 393.403
-556.952 748.488 394.730
-561.073 750.492 395.395
-554.762 752.738 398.561
-540.593 759.523 406.967
-530.553 759.029 408.506
-534.901 757.564 406.466
-535.699 763.009 410.701
-529.315 753.885 404.582
-559.787 754.519 398.944
-569.950 756.958 398.728
-574.939 766.350 405.247
-574.792 755.875 396.692
-574.898 749.617 391.488
-572.904 752.619 394.403
-563.208 759.193 401.954
-561.610 738.878 385.794
-563.455 751.787 395.930
-573.155 745.161 388.250
-565.322 739.094 385.051
-572.285 740.161 384.178
-557.987 734.491 382.923
-566.312 724.113 372.255
-575.096 725.146 370.986
-577.582 732.688 376.622
-572.948 735.662 380.352
-583.926 743.405 384.091
-592.887 740.139 378.980
-596.913 746.796 383.628
-601.210 745.904 381.786
-590.842 748.247 386.355
-595.551 737.611 376.194
-590.451 729.833 370.865
-595.082 759.399 394.895
-586.805 750.862 389.518
-591.443 759.302 395.486
-584.809 750.672 390.222
-582.891 751.699 391.276
-587.947 757.915 395.258
-592.606 769.296 403.675
-604.412 766.955 398.791
-584.182 763.579 400.864
-586.630 768.015 404.012
-596.075 765.146 399.331
-584.609 769.842 405.997
-600.107 761.365 395.188
-603.750 755.722 389.424
-602.958 757.659 391.288
-598.833 771.090 403.566
-592.922 774.919 408.200
-596.662 773.898 406.506
-594.742 775.126 407.915
-600.292 782.844 412.942
-594.895 778.662 410.769
-592.790 784.079 415.617
-588.690 780.175 413.353
-592.112 784.869 416.455
-594.303 790.671 420.634
-611.886 784.972 411.908
-605.479 783.001 411.908
-616.474 781.827 408.300
-611.405 782.093 409.782
-605.612 779.929 409.352
-612.209 778.789 406.818
-611.518 783.555 410.967
-608.456 768.858 399.370
-612.308 767.441 397.247
-617.130 774.414 401.976
-618.255 776.893 403.749
-615.503 774.749 402.582
-612.608 774.189 402.972
-575.168 774.191 411.491
-576.965 779.991 415.842
-572.532 776.310 413.774
-568.778 780.513 417.874
-569.242 780.030 417.417
-556.593 778.455 418.659
-568.069 780.764 418.209
-562.002 781.068 419.682
-569.950 783.402 419.931
-571.806 781.482 418.100
-572.326 781.067 417.638
-577.125 790.935 424.435
-587.421 794.380 425.064
-576.813 802.106 433.196
-588.636 802.490 431.158
-585.596 803.719 432.728
-576.842 808.116 437.971
-578.554 807.779 437.333
-579.792 799.445 430.544
-592.526 801.419 429.582
-584.125 791.158 423.108
-568.447 792.622 427.275
-573.965 795.686 428.960
-567.049 797.345 431.441
-567.990 791.501 426.801
-559.705 799.970 434.889
-559.903 798.417 433.683
-564.625 798.331 432.716
-563.900 796.318 431.262
-570.442 791.112 425.937
-595.769 794.357 423.294
-598.919 793.287 421.732
-596.172 801.465 428.784
-598.013 792.746 421.460
-560.635 789.611 426.682
-558.588 794.198 430.650
-557.868 786.132 424.399
-554.541 790.013 428.105
-552.911 794.786 432.137
-555.028 796.227 432.836
-551.244 770.229 413.352
-550.051 796.568 434.008
-550.382 773.895 416.381
-552.749 778.550 419.493
-547.618 799.234 436.555
-553.911 801.955 437.489
-566.240 807.301 439.414
-570.302 809.100 439.954
-553.805 803.147 438.451
-547.979 808.704 443.615
-550.303 809.850 444.092
-562.399 825.653 453.980
-535.506 817.256 452.013
-554.760 820.776 451.608
-543.788 831.789 461.398
-549.196 829.606 458.957
-565.995 834.338 459.893
-573.977 816.080 444.590
-580.523 821.325 447.453
-586.205 823.078 447.704
-586.706 831.327 454.067
-587.230 822.109 446.765
-585.944 829.231 452.573
-588.453 822.743 447.030
-587.132 828.516 451.912
-582.847 809.432 437.871
-591.542 809.645 436.164
-584.477 826.414 450.633
-581.276 817.356 444.369
-590.550 822.060 446.157
-593.139 814.036 439.350
-595.573 816.447 440.720
-590.623 825.666 448.880
-576.988 811.573 440.628
-596.527 817.833 441.707
-602.314 818.268 440.921
-604.782 819.196 440.971
-601.598 806.651 431.862
-600.021 817.756 440.868
-599.709 813.598 437.693
-595.633 824.824 447.234
-598.343 809.090 434.456
-591.258 831.770 453.645
-599.807 831.302 451.430
-604.938 827.436 447.406
-608.835 826.100 445.574
-604.525 831.157 450.394
-607.555 832.487 450.991
-604.553 831.091 450.473
-604.301 828.663 448.502
-599.868 832.678 452.491
-596.713 831.670 452.377
-597.862 833.206 453.293
-615.396 821.796 440.905
-611.904 823.907 443.395
-614.247 822.965 442.080
-611.010 828.030 446.666
-603.630 806.292 431.082
-606.971 810.646 433.759
-609.028 811.660 434.173
-611.423 810.675 433.339
-616.598 813.356 433.927
-615.802 814.466 435.009
-613.263 811.656 433.262
-611.826 802.813 426.803
-622.805 810.884 430.516
-607.419 799.967 425.830
-623.889 811.092 430.390
-622.982 820.284 438.052
-621.131 816.757 435.602
-622.243 823.121 440.432
-628.093 815.962 433.368
-621.194 816.232 435.195
-628.395 801.875 422.219
-630.967 803.522 422.565
-620.319 800.255 422.959
-632.915 810.577 427.873
-625.415 811.639 430.456
-630.234 815.294 432.309
-599.576 800.201 427.125
-599.005 800.111 427.131
-622.516 825.257 442.194
-619.101 831.514 447.840
-617.445 831.762 448.278
-616.350 832.676 449.337
-614.143 832.272 449.325
-625.450 835.603 449.721
-620.311 839.303 453.540
-611.086 838.333 454.641
-608.236 837.303 454.421
-626.960 835.771 449.452
-627.885 835.764 449.250
-627.936 840.606 453.177
-630.188 836.168 449.089
-630.833 835.896 448.747
-632.336 841.622 452.945
-633.424 840.039 451.479
-636.309 840.119 450.953
-638.227 827.819 440.741
-639.380 830.856 442.939
-628.695 828.806 443.643
-639.564 820.597 434.509
-639.323 823.175 436.687
-634.570 818.490 433.923
-638.714 821.523 435.400
-642.623 827.205 439.294
-643.687 826.366 438.303
-641.112 834.141 445.108
-640.334 822.255 435.718
-640.658 820.697 434.328
-649.711 823.949 434.934
-649.835 827.548 437.826
-643.258 817.114 430.683
-647.478 824.750 436.127
-642.060 809.691 424.882
-641.400 807.673 423.354
-648.788 818.350 430.346
-650.053 819.172 430.717
-647.741 808.549 422.453
-642.703 805.724 421.339
-648.146 809.529 423.280
-646.210 837.539 446.779
-648.659 836.223 445.170
-645.504 833.223 443.530
-652.361 822.727 433.183
-656.919 822.163 431.574
-655.856 826.391 435.369
-652.081 808.302 421.088
-651.424 809.431 422.196
-653.023 817.469 428.530
-651.429 826.284 436.349
-653.099 812.939 424.758
-661.433 820.368 429.018
-651.847 814.254 426.168
-638.636 814.895 430.036
-631.572 798.767 418.441
-634.572 802.991 421.172
-647.501 804.274 419.017
-643.939 802.697 418.526
-657.177 811.023 422.178
-663.499 805.319 415.763
-662.028 813.547 423.036
-666.579 805.671 415.295
-668.455 820.407 427.360
-666.744 813.320 421.687
-666.249 813.749 422.221
-661.963 798.483 410.406
-660.086 801.820 413.755
-652.529 801.704 415.549
-650.721 795.068 410.456
-646.044 797.618 413.782
-664.707 798.004 409.304
-653.677 803.414 416.648
-659.508 798.481 411.091
-673.048 808.967 416.449
-677.884 811.861 417.612
-675.354 819.479 424.786
-674.400 823.317 428.307
-672.178 816.774 423.339
-668.755 822.935 429.471
-658.570 836.719 443.338
-673.728 835.851 439.189
-680.887 836.834 438.273
-668.532 831.925 437.056
-681.181 820.065 423.962
-685.319 824.380 426.451
-682.590 824.158 427.090
-681.305 830.546 432.866
-688.276 821.555 423.305
-687.569 817.241 419.727
-682.372 813.621 417.895
-687.023 815.539 418.294
-698.041 816.249 415.917
-698.404 818.021 417.319
-686.156 810.424 414.114
-693.354 817.954 418.777
-700.041 824.998 423.052
-694.368 813.566 414.654
-687.035 812.042 415.189
-691.164 827.115 427.314
-677.938 807.339 413.711
-673.393 797.346 406.368
-685.482 803.362 408.058
-684.991 803.865 408.624
-678.564 797.029 404.540
-681.474 798.621 405.049
-697.782 804.495 405.345
-695.142 804.343 406.094
-695.845 809.460 410.343
-695.363 808.110 409.274
-693.238 806.432 408.383
-694.725 803.467 405.449
-699.609 811.890 411.483
-688.439 798.555 402.975
-692.785 802.447 405.102
-688.684 802.754 406.517
-684.025 798.527 404.252
-684.680 795.728 401.540
-685.316 795.892 401.556
-693.385 787.621 391.536
-693.718 788.665 392.324
-694.876 796.147 398.753
-692.623 790.153 394.052
-695.113 794.640 397.334
-697.094 794.890 396.919
-675.280 791.367 400.622
-680.736 787.816 395.761
-670.547 786.187 397.496
-677.204 792.158 400.674
-674.595 790.441 399.918
-674.451 789.843 399.496
-699.483 800.774 401.492
-696.637 801.354 403.038
-677.398 793.667 401.969
-675.691 792.404 401.371
-673.227 791.277 401.071
-678.513 796.104 403.739
-674.390 790.952 400.458
-671.990 789.019 399.478
-671.354 788.851 399.484
-670.701 795.426 405.463
-668.163 796.504 407.066
-669.629 793.167 403.803
-660.288 791.439 404.897
-656.644 790.554 405.140
-661.296 790.472 403.839
-655.954 779.155 395.575
-660.773 785.154 399.377
-648.058 792.853 409.304
-670.685 782.181 393.867
-674.868 777.768 388.517
-681.626 773.948 382.839
-687.991 778.508 384.976
-686.819 779.499 386.254
-695.504 781.345 385.075
-684.404 774.969 382.891
-663.188 770.635 385.923
-666.108 762.285 377.405
-662.235 774.188 389.412
-659.808 775.021 390.873
-673.416 768.535 380.713
-670.263 764.708 378.163
-661.538 764.200 380.687
-656.866 769.303 386.655
-664.648 769.713 384.598
-669.692 773.661 386.621
-672.750 761.806 374.755
-683.068 769.560 378.434
-678.156 766.764 377.507
-688.252 767.018 374.342
-691.626 761.472 367.920
-699.768 760.354 363.815
-696.952 760.005 364.579
-688.717 761.276 368.715
-687.981 763.554 371.169
-687.557 759.548 367.546
-685.176 751.554 360.830
-674.861 755.656 368.388
-681.043 758.083 368.436
-677.663 758.050 369.666
-681.272 761.134 371.225
-678.727 757.725 368.963
-675.339 757.095 369.538
-676.455 757.766 369.771
-704.499 771.075 372.377
-704.710 766.246 367.713
-705.218 780.052 380.602
-696.631 776.351 380.108
-698.882 769.389 372.746
-709.361 774.019 373.422
-697.941 765.580 369.462
-705.227 761.106 362.510
-704.311 764.495 366.213
-705.856 761.361 362.583
-707.315 764.164 364.652
-709.038 767.706 367.484
-722.293 762.578 357.516
-719.376 761.346 357.196
-718.622 762.738 358.928
-709.458 767.262 366.920
-726.196 772.845 365.992
-722.717 780.642 374.926
-717.209 774.058 370.599
-715.991 767.881 365.098
-722.870 775.728 370.084
-722.578 764.698 359.504
-723.417 766.463 360.828
-713.896 776.347 374.070
-714.088 780.520 377.938
-720.657 757.667 353.090
-702.414 757.294 359.860
-707.193 753.850 354.609
-704.223 757.405 359.227
-703.705 751.461 353.694
-703.476 755.736 357.879
-699.143 753.493 357.496
-697.019 749.543 354.465
-696.186 749.920 355.051
-706.447 746.810 348.042
-690.284 740.378 348.110
-695.460 741.042 346.711
-682.299 746.559 356.987
-693.061 739.400 346.065
-718.913 751.872 348.076
-708.986 741.837 342.142
-679.888 747.466 358.743
-674.628 749.171 362.246
-670.075 749.805 364.592
-669.090 754.935 369.627
-671.919 742.143 356.572
-672.864 746.210 360.219
-669.367 735.676 351.518
-667.025 747.074 362.984
-659.698 740.081 359.012
-660.087 746.592 365.047
-664.230 746.687 363.646
-667.481 746.674 362.550
-665.847 747.855 364.234
-661.076 743.927 362.234
-679.343 731.933 344.111
-685.974 733.715 343.336
-679.908 722.894 335.056
-689.590 733.977 342.133
-684.885 728.249 338.219
-685.721 732.264 341.924
-693.782 731.115 337.708
-697.354 731.965 336.986
-694.564 722.155 328.376
-687.429 719.971 329.286
-703.269 731.210 333.958
-704.684 735.322 337.267
-702.902 735.890 338.712
-703.638 735.683 338.071
-664.917 729.093 346.757
-667.733 730.166 346.864
-672.498 730.537 345.371
-681.573 717.314 328.796
-669.431 716.142 332.440
-680.125 717.266 329.296
-682.361 714.636 325.902
-671.902 709.402 325.006
-675.324 715.946 329.983
-673.423 708.131 323.174
-668.409 716.177 333.025
-693.031 709.395 316.205
-675.877 702.545 316.577
-696.996 722.016 327.412
-699.530 722.210 326.578
-694.645 715.816 322.085
-701.376 713.313 316.688
-714.257 724.649 322.639
-714.758 724.489 322.303
-711.391 723.724 323.075
-706.656 721.177 322.542
-704.321 724.084 326.346
-713.919 728.196 326.566
-715.193 734.233 332.045
-724.008 742.512 336.708
-726.048 740.361 333.528
-725.630 743.731 337.167
-716.379 741.431 338.658
-723.566 751.482 345.775
-723.627 753.933 348.208
-727.827 756.874 349.506
-726.172 752.663 345.980
-740.235 765.366 352.860
-741.147 766.226 353.436
-734.007 768.730 358.750
-728.748 761.814 354.008
-741.956 775.345 362.191
-731.945 769.923 360.770
-733.302 772.773 363.045
-749.320 763.599 347.354
-745.787 767.596 352.897
-745.657 769.687 355.004
-740.751 768.290 355.612
-745.313 767.328 352.788
-753.448 763.686 345.628
-752.419 769.197 351.657
-752.178 766.650 349.219
-752.752 771.467 353.837
-754.839 782.780 364.355
-756.692 768.949 349.560
-741.643 781.248 368.204
-739.223 780.051 367.970
-750.948 781.476 364.680
-744.991 782.937 368.520
-761.444 794.883 374.332
-745.371 790.470 375.795
-739.764 790.947 378.466
-734.015 793.262 382.798
-747.720 784.633 369.173
-742.330 786.723 373.368
-744.188 794.705 380.378
-757.493 792.145 372.765
-757.638 788.162 368.532
-737.395 788.877 377.363
-739.209 781.285 369.235
-730.973 782.635 373.773
-760.208 786.126 365.445
-762.655 783.407 361.736
-761.396 781.478 360.347
-777.789 791.535 363.430
-769.377 778.710 354.013
-778.342 786.918 358.456
-769.246 783.957 359.441
-774.937 798.468 371.640
-789.874 803.763 370.614
-783.157 804.273 374.021
-777.562 806.048 378.155
-779.671 810.596 381.801
-782.751 802.273 372.182
-775.209 815.081 388.079
-793.430 814.249 379.709
-793.065 814.375 379.996
-792.784 817.036 382.788
-802.374 815.408 376.984
-795.026 821.863 386.678
-803.867 821.579 382.602
-801.194 819.870 382.024
-798.666 827.148 390.396
-783.004 828.635 398.208
-790.953 824.863 391.331
-787.440 830.723 398.505
-782.744 830.444 400.086
-791.081 833.214 399.443
-775.888 826.184 398.601
-775.814 833.256 405.416
-784.172 839.457 408.188
-774.385 830.075 402.933
-773.593 830.097 403.227
-781.180 839.687 409.552
-780.677 840.000 410.033
-763.168 838.612 415.125
-774.318 845.678 417.702
-763.404 843.257 419.384
-760.981 838.574 415.869
-764.947 833.283 409.539
-750.832 840.171 420.830
-755.975 821.270 401.404
-756.322 819.828 399.927
-762.340 847.570 423.679
-754.772 840.301 419.591
-749.710 845.835 426.339
-753.962 846.310 425.365
-756.408 855.526 432.877
-747.844 850.228 430.855
-751.742 855.807 434.666
-743.256 831.210 415.114
-745.539 852.124 433.286
-737.280 834.965 420.509
-727.981 827.276 416.567
-717.934 825.315 417.991
-731.876 826.080 414.220
-729.831 836.810 424.493
-729.995 831.007 419.290
-728.897 819.602 409.321
-729.299 833.693 421.899
-733.488 819.057 407.259
-724.654 844.033 432.427
-720.594 839.561 429.696
-729.609 849.400 435.637
-733.620 863.926 447.080
-741.492 862.065 443.235
-735.210 855.400 439.227
-726.147 852.156 439.018
-738.782 865.071 446.622
-726.581 860.086 445.736
-726.977 865.769 450.466
-719.921 861.491 448.773
-726.352 862.506 447.902
-708.655 842.029 435.233
-718.098 848.204 437.880
-715.831 841.517 432.768
-712.684 837.948 430.661
-709.527 845.563 438.074
-713.177 857.536 447.244
-697.341 846.555 442.145
-723.191 869.914 455.013
-713.047 864.414 453.081
-717.500 866.562 453.695
-711.163 864.776 453.841
-704.270 870.039 459.978
-704.689 866.035 456.603
-709.362 864.774 454.370
-692.466 851.160 447.298
-691.925 839.049 437.286
-683.379 848.257 447.089
-690.904 844.738 442.299
-688.000 851.346 448.506
-691.321 842.931 440.660
-688.964 849.147 446.475
-683.570 858.520 455.460
-675.226 846.761 447.841
-675.272 852.052 452.130
-678.970 852.704 451.801
-678.676 849.115 448.994
-683.195 851.186 449.547
-691.863 860.808 455.400
-689.200 866.205 460.424
-701.011 839.907 435.537
-693.785 838.190 436.078
-694.374 865.971 458.997
-699.732 841.325 437.132
-682.876 840.567 440.815
-677.671 844.130 445.082
-658.576 837.621 444.051
-657.606 842.269 448.198
-672.931 857.674 457.175
-668.261 855.580 456.559
-664.646 854.093 456.155
-665.508 871.001 469.444
-663.128 866.622 466.488
-671.407 866.942 464.977
-663.685 857.018 458.690
-675.886 866.578 463.690
-670.487 870.438 467.936
-648.942 864.168 467.447
-653.341 855.304 459.625
-652.667 845.242 451.712
-647.333 842.190 450.272
-649.894 847.686 454.279
-648.417 848.522 455.238
-647.379 855.015 460.656
-643.499 855.881 462.093
-649.339 862.669 466.211
-639.054 862.647 468.210
-637.631 860.251 466.590
-644.056 865.395 469.426
-638.015 866.332 471.346
-639.083 855.538 462.727
-642.319 845.956 454.446
-647.708 868.264 470.949
-645.931 866.155 469.628
-655.951 873.915 473.718
-652.511 871.221 472.328
-651.399 870.690 472.110
-655.981 875.628 474.989
-648.234 865.515 468.663
-662.744 876.424 474.276
-643.928 876.817 478.277
-643.912 869.454 472.576
-642.300 872.072 474.965
-645.402 869.913 472.693
-644.296 871.295 473.903
-632.264 855.556 464.030
-632.678 867.058 472.871
-631.294 869.817 475.278
-634.649 857.267 464.869
-626.604 862.018 470.117
-626.907 854.843 464.515
-628.417 850.326 460.570
-626.432 863.365 471.121
-628.731 867.321 473.755
-627.012 847.264 458.419
-636.739 842.952 453.272
-630.284 847.951 458.444
-632.306 846.352 456.692
-619.687 856.239 466.891
-622.896 847.463 459.523
-622.276 864.020 472.386
-621.473 861.990 470.994
-617.230 857.464 468.328
-615.903 857.093 468.022
-643.795 842.357 451.190
-648.389 838.227 446.828
-612.464 850.181 463.521
-609.433 851.635 465.211
-612.623 845.527 459.970
-613.660 848.440 462.000
-611.139 842.438 457.847
-608.643 847.163 461.998
-607.263 845.057 460.543
-614.112 841.781 456.792
-601.685 859.325 472.451
-603.904 860.409 472.866
-600.535 859.364 472.717
-599.319 859.340 472.884
-619.396 869.229 476.919
-609.996 871.792 480.473
-610.217 874.493 482.490
-595.932 878.514 487.764
-623.218 879.496 484.063
-615.362 884.647 489.253
-588.746 865.232 479.089
-579.416 857.318 474.754
-588.911 863.633 477.820
-586.593 870.612 483.390
-582.323 878.969 490.135
-590.587 856.976 472.651
-576.006 861.434 478.306
-579.809 852.363 471.008
-570.077 873.373 487.819
-564.380 876.727 490.974
-565.336 887.631 498.678
-579.333 881.101 492.051
-569.879 887.267 497.819
-566.289 876.417 490.511
-566.966 873.666 488.420
-564.396 869.314 485.684
-587.075 885.552 494.282
-584.469 884.616 493.932
-595.802 888.141 494.866
-593.307 883.314 491.689
-585.437 900.779 505.444
-581.186 901.403 506.411
-579.673 918.114 518.356
-578.057 905.835 509.942
-593.241 902.022 505.585
-575.310 905.745 510.312
-574.593 907.719 511.722
-578.714 903.792 508.475
-566.340 909.640 514.039
-570.234 915.882 517.986
-561.157 905.512 511.748
-540.741 906.500 514.712
-549.635 909.467 515.823
-559.502 912.913 517.158
-574.877 918.600 519.359
-560.811 921.292 522.805
-560.076 910.369 515.236
-558.795 915.342 518.898
-553.058 888.414 500.648
-557.771 898.476 507.195
-542.900 885.912 499.999
-546.086 884.167 498.510
-540.829 888.207 501.864
-533.014 898.082 509.699
-531.999 884.966 500.641
-535.009 891.110 504.570
-519.754 891.836 506.635
-531.342 890.677 504.655
-543.554 873.513 491.103
-540.889 873.573 491.532
-541.775 868.952 488.239
-549.665 864.094 483.793
-539.213 863.620 484.767
-526.677 871.873 492.112
-544.650 864.054 484.479
-558.757 853.066 474.696
-569.877 840.201 463.653
-556.938 843.532 468.114
-552.217 842.801 468.196
-566.068 845.262 467.973
-531.834 848.320 474.934
-513.303 848.203 477.249
-511.005 848.723 477.728
-516.869 857.326 483.049
-524.636 833.603 465.374
-525.566 847.090 474.831
-510.635 853.373 480.962
-519.618 830.814 464.102
-510.589 837.127 469.625
-522.795 829.959 463.023
-508.796 838.139 470.576
-506.995 839.160 471.426
-494.766 841.715 474.660
-492.404 841.754 474.943
-532.558 829.227 461.149
-529.548 821.306 455.819
-511.259 863.623 488.096
-517.866 867.805 490.307
-511.251 870.042 492.632
-513.315 877.967 497.796
-507.918 886.128 503.871
-502.827 874.468 496.489
-493.316 895.344 511.427
-498.859 899.780 513.891
-493.294 893.618 510.202
-507.424 894.258 509.479
-505.489 897.717 512.020
-489.161 903.677 517.201
-486.763 897.855 513.565
-488.843 906.414 519.035
-512.388 907.454 517.804
-518.081 907.626 517.451
-504.970 915.606 523.865
-513.645 930.337 532.794
-509.796 930.628 533.325
-499.442 920.401 527.391
-485.818 926.832 532.560
-478.519 919.572 528.354
-494.198 935.086 537.351
-483.216 936.512 539.018
-502.418 943.177 542.072
-489.504 938.929 540.170
-499.067 944.846 543.393
-494.667 951.784 548.157
-477.211 924.199 531.346
-514.220 935.251 536.074
-518.840 932.212 533.781
-525.408 935.413 535.486
-519.483 940.639 539.328
-526.806 928.122 530.509
-526.474 947.670 543.465
-509.755 950.421 546.367
-493.602 954.156 549.706
-494.222 961.929 554.622
-518.973 959.441 551.583
-506.372 968.738 558.160
-495.284 960.495 553.672
-503.004 955.170 549.863
-516.526 964.322 554.857
-532.190 972.206 558.846
-518.035 969.522 558.008
-519.098 978.000 563.336
-514.148 970.142 558.694
-527.156 971.296 558.637
-498.649 970.306 559.596
-496.535 970.315 559.695
-532.479 953.790 547.016
-540.967 956.549 548.089
-547.388 956.772 547.686
-546.849 959.181 549.360
-540.812 962.122 551.758
-545.094 966.633 554.328
-556.260 978.990 561.509
-548.844 970.624 556.644
-541.567 981.382 564.094
-537.126 983.879 565.902
-552.950 974.958 559.131
-555.018 977.361 560.547
-559.315 982.356 563.363
-536.205 986.750 567.814
-569.013 964.675 551.109
-564.798 980.004 560.151
-584.174 980.496 558.688
-592.839 972.121 554.480
-602.410 979.980 559.272
-595.661 981.507 561.033
-594.644 969.619 552.593
-596.710 965.353 549.385
-593.217 989.932 564.264
-590.030 981.889 559.158
-590.575 979.513 557.436
-594.446 991.909 565.497
-585.618 969.122 552.848
-594.684 956.223 543.149
-584.540 952.711 541.757
-601.693 963.870 547.893
-611.444 965.723 548.248
-603.496 951.895 539.249
-609.477 948.528 535.029
-617.516 968.640 549.839
-615.249 961.720 543.086
-608.893 977.939 557.168
-617.222 974.288 553.982
-591.091 947.978 537.825
-597.427 948.132 537.180
-590.390 944.249 535.281
-596.660 937.646 529.974
-582.091 943.058 535.344
-576.610 944.151 536.635
-605.314 936.316 528.024
-604.571 938.216 529.345
-610.015 938.416 528.854
-613.328 939.095 529.012
-620.293 936.569 526.285
-623.008 929.542 520.885
-615.873 936.903 527.056
-620.762 925.587 518.357
-627.859 936.396 523.710
-631.172 934.897 521.580
-605.176 923.441 518.934
-605.784 917.029 514.256
-596.191 919.223 517.063
-603.978 917.380 514.745
-587.230 923.006 520.874
-622.182 918.645 513.172
-639.446 916.712 509.119
-630.472 905.642 502.438
-635.489 929.462 519.066
-641.841 920.912 511.852
-630.917 911.287 506.472
-633.256 919.371 511.988
-628.591 901.956 499.947
-623.096 910.580 507.122
-615.615 897.147 498.454
-610.757 899.562 500.959
-623.043 894.421 495.295
-636.386 900.690 497.840
-639.673 893.149 491.577
-642.115 891.340 489.805
-638.450 890.627 489.844
-632.297 887.832 488.796
-630.346 884.538 486.632
-624.258 890.963 492.532
-636.394 877.779 480.438
-652.971 883.944 482.483
-636.376 876.501 479.471
-659.270 893.249 488.571
-659.853 890.728 486.297
-659.205 895.140 489.870
-662.194 894.444 488.784
-665.719 889.690 484.559
-660.471 887.954 484.304
-664.447 891.636 486.335
-661.836 892.099 487.096
-671.236 893.001 485.909
-665.639 882.255 478.585
-675.922 882.790 476.666
-679.454 883.082 476.118
-675.736 883.488 477.256
-683.322 891.385 481.924
-681.744 892.152 482.783
-674.839 890.219 483.068
-683.277 876.285 469.885
-678.197 872.427 467.850
-674.453 871.975 468.316
-670.108 899.233 490.650
-668.484 907.569 497.424
-675.003 899.679 490.041
-665.252 902.330 494.022
-660.350 908.768 499.743
-688.512 893.599 482.623
-687.344 895.988 484.678
-689.366 890.166 479.688
-692.373 881.582 472.119
-689.454 887.256 477.313
-698.119 888.840 476.702
-699.258 879.356 468.802
-695.592 876.776 467.564
-700.369 879.514 468.670
-702.179 883.907 471.829
-697.281 875.694 466.252
-700.498 877.836 467.285
-690.927 875.552 467.632
-686.324 874.017 467.351
-603.837 898.086 501.112
-573.837 921.716 521.571
-560.267 926.444 526.360
-568.970 935.835 531.758
-557.160 929.909 529.049
-563.091 936.540 532.928
-549.331 931.944 531.167
-545.432 931.684 531.401
-562.317 940.543 535.622
-566.594 940.824 535.379
-574.981 949.828 540.617
-567.979 954.314 544.312
-557.424 949.267 541.965
-554.839 948.930 541.978
-567.122 955.633 545.270
-536.907 933.032 533.069
-542.861 927.032 528.464
-548.473 920.594 523.596
-535.180 916.887 522.474
-528.963 921.095 525.671
-533.322 913.796 520.352
-532.568 910.821 518.505
-610.294 992.088 564.471
-617.750 980.203 558.255
-603.957 997.325 568.243
-532.439 997.299 574.713
-531.781 986.848 568.140
-525.731 988.659 570.065
-539.972 998.034 573.675
-516.320 984.499 567.531
-520.046 995.769 575.030
-524.707 997.368 575.444
-527.606 999.577 576.356
-531.899 1001.018 577.095
-519.658 992.961 573.049
-516.905 1000.355 577.262
-503.284 988.621 570.677
-523.671 1006.398 580.678
-506.915 984.672 568.096
-509.731 999.585 577.111
-510.726 986.961 569.360
-513.548 987.769 569.627
-527.263 1006.251 580.460
-503.954 997.423 575.944
-508.142 1012.207 584.724
-494.067 990.881 572.372
-492.003 992.150 573.203
-476.737 999.680 578.040
-481.187 999.845 578.032
-480.527 988.133 571.178
-475.614 980.007 566.483
-478.772 989.187 571.791
-478.770 992.084 573.505
-472.438 973.702 562.788
-468.955 1002.169 579.592
-481.976 1010.740 584.368
-463.370 1002.473 579.772
-459.785 1005.932 581.722
-463.605 1018.042 588.619
-455.428 1017.265 588.131
-476.886 1017.032 588.017
-470.950 1017.982 588.638
-452.302 1005.898 581.734
-443.408 1004.467 580.767
-435.580 1018.645 588.544
-435.200 1006.418 581.824
-429.255 1011.743 584.639
-447.485 1019.422 589.183
-451.941 1036.145 598.586
-444.443 1028.098 593.905
-457.255 1029.860 595.117
-465.765 1028.356 594.418
-474.294 1029.540 595.191
-474.722 1038.016 599.970
-485.428 1033.457 597.399
-459.121 1043.900 602.938
-472.672 1046.517 604.681
-463.491 1036.699 599.053
-485.487 1019.924 589.656
-494.277 1018.602 588.869
-491.726 1032.951 597.050
-449.850 1045.636 603.665
-466.826 1052.134 607.774
-456.763 1057.790 610.520
-440.956 1056.758 609.392
-443.810 1051.767 606.763
-444.401 1067.946 615.338
-433.582 1056.826 609.048
-429.029 1058.657 609.720
-437.274 1074.528 618.456
-426.163 1067.451 614.123
-426.742 1074.816 617.999
-422.416 1083.989 622.353
-421.144 1072.597 616.485
-421.410 1085.157 622.874
-418.053 1086.705 623.437
-420.030 1057.290 608.606
-415.461 1049.136 604.137
-430.553 1046.001 603.256
-419.661 1042.684 600.936
-403.886 1064.128 611.181
-404.513 1062.592 610.376
-410.860 1055.833 607.300
-401.493 1055.839 606.879
-388.120 1040.321 598.083
-391.262 1065.548 611.047
-391.040 1063.185 609.843
-381.956 1046.994 601.179
-398.336 1065.309 611.380
-385.708 1067.770 611.736
-397.103 1073.236 615.256
-405.982 1084.313 621.257
-382.502 1077.997 616.501
-380.245 1081.192 617.790
-399.609 1089.258 623.338
-383.538 1088.922 621.689
-365.587 1079.424 615.613
-374.552 1088.255 620.497
-388.222 1101.868 628.204
-382.969 1096.525 625.189
-401.954 1094.087 625.828
-384.522 1106.071 629.696
-374.072 1095.951 624.017
-364.104 1098.497 624.028
-354.551 1089.261 618.860
-360.840 1083.237 616.932
-348.774 1092.614 619.616
-350.944 1097.115 621.827
-358.405 1116.867 631.261
-349.114 1117.112 630.062
-370.132 1132.871 639.679
-345.803 1116.350 629.224
-345.983 1112.995 627.953
-345.610 1121.086 631.262
-337.974 1113.582 627.108
-351.914 1127.183 634.713
-354.066 1128.859 635.687
-359.899 1134.469 638.943
-346.828 1138.712 638.677
-353.100 1151.342 644.748
-340.922 1137.949 637.366
-363.849 1138.064 640.956
-378.330 1126.052 637.968
-381.543 1114.890 633.355
-395.915 1109.458 632.514
-409.639 1096.049 627.469
-412.554 1096.195 627.733
-336.766 1128.714 632.977
-331.480 1127.421 631.589
-325.599 1144.448 637.394
-337.050 1156.905 644.365
-333.752 1161.829 645.575
-316.151 1151.936 638.700
-331.979 1167.561 647.588
-322.712 1170.350 646.822
-313.473 1161.545 641.850
-308.164 1186.195 649.452
-315.531 1185.390 650.738
-302.713 1181.348 646.539
-292.330 1171.587 640.889
-300.573 1169.811 641.986
-292.702 1198.851 650.114
-280.730 1204.880 649.169
-281.019 1186.820 643.447
-278.842 1210.722 650.572
-264.221 1224.348 650.840
-263.848 1224.560 650.870
-266.522 1227.676 652.443
-268.238 1227.579 652.836
-266.396 1217.296 649.435
-271.487 1191.691 642.767
-274.192 1186.860 641.949
-275.123 1180.452 639.995
-256.365 1180.695 635.521
-257.903 1189.947 638.938
-252.656 1184.308 635.814
-250.415 1202.646 640.965
-234.853 1188.440 632.538
-258.757 1169.299 632.460
-250.547 1165.745 629.227
-252.456 1170.136 630.995
-260.550 1164.389 631.297
-261.790 1166.194 632.216
-264.937 1169.886 634.036
-256.028 1158.785 628.152
-259.168 1162.443 630.286
-273.751 1154.271 630.734
-282.219 1162.100 635.449
-286.943 1155.540 634.171
-298.134 1147.152 633.461
-317.155 1145.337 636.321
-307.340 1155.909 638.450
-288.202 1137.664 628.064
-316.037 1133.940 631.664
-301.239 1137.263 630.274
-300.487 1128.786 626.983
-285.046 1121.288 621.260
-302.102 1118.893 623.392
-286.411 1114.913 619.087
-294.385 1110.283 618.769
-310.305 1103.934 618.689
-304.671 1097.395 615.276
-309.324 1101.671 617.775
-317.899 1110.082 622.610
-309.359 1085.632 611.111
-324.913 1100.922 619.846
-317.035 1093.167 615.430
-319.043 1113.746 624.216
-330.564 1106.312 622.941
-328.099 1120.200 628.202
-328.866 1087.132 614.657
-338.302 1086.954 615.804
-325.248 1075.089 608.894
-327.792 1074.371 609.032
-328.101 1072.621 608.149
-333.370 1068.932 607.326
-345.751 1080.721 614.052
-344.628 1086.941 616.652
-354.435 1068.608 609.485
-341.959 1065.391 606.734
-367.082 1073.096 612.796
-337.341 1058.673 603.018
-354.700 1049.362 600.241
-347.391 1061.574 605.545
-366.601 1057.796 605.390
-371.224 1059.445 606.603
-339.920 1054.010 601.102
-349.520 1052.059 601.182
-351.277 1057.897 604.173
-372.652 1070.977 612.192
-375.367 1060.660 607.548
-367.757 1047.688 600.359
-376.785 1046.963 600.764
-388.531 1037.489 596.659
-394.778 1036.535 596.534
-381.805 1027.259 590.950
-397.282 1034.686 595.717
-406.147 1035.813 596.689
-412.928 1027.619 592.700
-388.489 1022.398 588.755
-406.774 1029.529 593.452
-422.243 1037.304 598.277
-412.042 1019.300 588.118
-401.847 1016.176 586.161
-422.592 1017.907 587.822
-422.429 1022.609 590.393
-429.205 1036.676 598.618
-441.502 1042.127 601.454
-342.667 1050.018 599.425
-336.297 1050.858 599.317
-314.584 1050.358 596.581
-320.412 1045.215 594.858
-322.035 1057.624 600.814
-323.003 1045.114 595.014
-327.552 1067.645 605.969
-327.688 1063.271 604.057
-308.868 1069.606 604.309
-311.180 1077.321 607.891
-313.070 1076.964 607.971
-302.550 1079.654 607.566
-304.946 1081.573 608.789
-298.105 1075.566 605.208
-303.783 1070.840 604.088
-287.528 1065.602 599.378
-292.218 1069.955 602.047
-277.518 1056.265 594.028
-282.643 1061.060 596.785
-275.425 1080.016 603.572
-274.026 1077.929 602.500
-272.977 1076.208 601.683
-272.287 1073.597 600.446
-275.615 1077.707 602.705
-276.086 1078.826 603.212
-262.705 1068.004 596.647
-269.587 1074.554 600.461
-268.791 1069.312 598.157
-264.916 1064.626 595.643
-268.896 1082.607 603.539
-260.417 1073.181 598.333
-257.251 1069.263 596.201
-257.047 1085.953 602.813
-279.204 1093.923 609.721
-267.169 1103.602 611.289
-272.717 1101.443 611.478
-252.617 1103.990 608.695
-260.568 1111.424 613.524
-269.329 1119.718 617.748
-270.722 1138.676 624.586
-256.193 1123.478 616.311
-276.004 1125.889 621.148
-243.148 1109.762 608.835
-248.071 1133.529 618.035
-250.195 1136.232 619.527
-247.018 1133.687 617.907
-244.835 1134.549 617.604
-247.017 1136.109 618.600
-248.184 1136.659 619.093
-247.380 1132.246 617.353
-248.192 1132.448 617.606
-249.082 1136.339 619.248
-249.501 1137.366 619.579
-250.800 1134.438 618.841
-257.805 1140.790 622.694
-239.820 1130.180 615.096
-238.186 1129.775 614.573
-241.109 1132.067 615.952
-232.759 1132.897 614.317
-230.433 1129.991 612.931
-229.060 1128.034 611.958
-228.132 1126.524 611.124
-228.221 1126.001 611.006
-232.108 1124.358 611.520
-220.660 1134.052 611.792
-246.505 1148.213 622.655
-243.233 1144.413 620.475
-240.078 1140.706 618.538
-227.866 1148.775 618.103
-223.891 1121.117 608.483
-219.443 1114.286 605.207
-223.972 1118.143 607.584
-223.181 1116.760 606.848
-215.026 1125.966 607.857
-208.740 1126.972 606.745
-218.536 1114.003 604.893
-218.296 1114.377 604.975
-222.577 1119.207 607.594
-225.264 1118.206 607.839
-216.096 1140.494 612.745
-222.021 1153.618 618.194
-202.682 1134.336 607.421
-193.291 1150.791 609.902
-238.975 1163.276 625.551
-209.059 1165.163 618.422
-222.343 1177.142 625.819
-237.025 1168.673 626.785
-249.787 1152.052 624.532
-262.649 1145.009 625.188
-263.731 1145.485 625.604
-265.801 1146.949 626.536
-230.190 1096.128 601.327
-249.328 1085.965 601.381
-232.247 1084.583 597.501
-241.539 1093.376 602.644
-217.698 1082.955 594.024
-212.739 1066.080 586.740
-231.258 1068.111 591.135
-220.897 1073.709 591.280
-226.937 1056.271 585.669
-241.686 1070.792 594.101
-250.138 1060.610 591.493
-254.652 1065.933 594.431
-256.635 1064.206 594.067
-257.116 1065.339 594.636
-255.993 1064.803 594.256
-256.301 1063.223 593.578
-257.234 1055.948 590.794
-251.364 1060.617 591.705
-258.104 1063.837 594.141
-257.130 1063.455 593.813
-250.235 1060.078 591.315
-244.954 1042.446 583.184
-261.350 1040.403 584.776
-250.031 1029.049 578.153
-231.873 1028.090 575.013
-241.180 1020.325 573.094
-233.526 1012.873 568.743
-263.800 1013.564 573.402
-265.108 1015.305 574.284
-278.434 1024.601 580.192
-268.763 1008.595 571.743
-269.715 1009.975 572.473
-276.543 1017.678 576.826
-278.986 1020.394 578.361
-279.382 1021.249 578.824
-272.871 1013.335 574.404
-274.025 1014.886 575.260
-266.641 1005.656 570.125
-269.516 1005.853 570.575
-267.112 1006.600 570.602
-263.598 1002.382 568.267
-261.232 999.746 566.724
-284.226 1020.268 578.978
-281.881 1024.015 580.386
-277.926 1030.494 582.837
-292.382 1041.102 589.540
-286.874 1029.017 583.298
-292.992 1029.256 584.203
-296.505 1038.203 588.677
-287.520 1038.428 587.629
-291.783 1040.997 589.322
-284.753 1032.155 584.469
-291.674 1039.812 588.871
-288.671 1024.789 581.685
-294.348 1020.919 580.500
-268.172 1046.989 588.591
-302.671 1038.511 589.730
-305.604 1028.738 585.381
-300.932 1042.709 591.240
-307.973 1043.862 592.769
-306.519 1048.232 594.469
-290.780 1049.047 592.799
-213.627 1050.721 580.967
-198.048 1062.585 582.456
-203.352 1057.214 581.503
-210.925 1040.465 576.398
-251.272 1237.017 650.800
-241.105 1239.572 648.601
-251.840 1248.945 654.109
-245.578 1252.247 653.121
-241.701 1228.648 645.947
-236.124 1252.687 650.373
-229.602 1270.913 652.395
-227.461 1266.053 650.686
-225.496 1253.317 647.243
-237.577 1263.740 653.398
-223.926 1274.562 651.300
-482.910 970.252 560.303
-480.391 971.644 561.281
-484.037 959.091 553.270
-488.186 957.122 551.870
-466.471 917.155 527.692
-471.350 912.440 524.190
-462.822 917.277 527.860
-460.902 902.310 518.145
-456.923 898.106 515.747
-451.664 892.269 512.243
-453.464 894.442 513.496
-482.972 904.404 518.137
-589.898 836.716 457.562
-604.370 837.211 455.109
-601.403 842.008 459.491
-604.521 836.218 454.444
-598.146 840.904 459.229
-609.753 839.118 455.396
-711.711 830.277 424.231
-701.829 831.715 428.311
-707.768 815.575 412.455
-709.173 809.301 406.253
-704.293 812.561 410.770
-708.015 806.918 404.433
-710.771 803.338 400.286
-706.288 808.858 406.817
-707.074 809.623 407.175
-718.995 811.292 405.006
-713.760 809.929 405.480
-711.071 799.805 396.957
-715.607 806.107 401.272
-714.530 803.737 399.522
-713.023 792.619 389.715
-714.091 799.757 396.037
