3167757.400 637172.051 504118.448
3167759.626 637169.140 504115.473
3167755.280 637170.290 504117.903
3167759.968 637160.571 504109.013
3167765.787 637160.605 504106.748
3167762.412 637156.535 504105.139
3167763.472 637161.281 504108.259
3167749.415 637158.811 504111.805
3167758.041 637160.731 504109.946
3167761.999 637160.714 504108.454
3167762.871 637155.145 504104.078
3167769.993 637161.110 504105.482
3167769.710 637164.590 504108.133
3167754.345 637152.250 504105.218
3167756.394 637153.911 504105.600
3167756.998 637154.179 504105.651
3167758.610 637153.538 504104.427
3167745.800 637163.659 504116.692
3167739.828 637156.359 504113.521
3167744.087 637163.878 504117.492
3167744.959 637153.650 504109.670
3167747.738 637163.766 504115.918
3167736.188 637171.088 504125.360
3167741.209 637170.278 504122.967
3167743.335 637175.754 504126.875
3167745.171 637175.555 504125.822
3167724.674 637176.172 504132.822
3167733.430 637176.584 504130.239
3167730.262 637171.593 504127.785
3167725.024 637172.319 504129.947
3167726.934 637173.507 504130.140
3167731.985 637165.542 504122.955
3167733.680 637171.630 504126.632
3167728.385 637171.803 504128.602
3167727.409 637168.915 504126.844
3167733.658 637161.754 504119.618
3167724.189 637151.301 504115.408
3167726.532 637151.856 504115.044
3167723.322 637153.315 504117.172
3167724.049 637149.164 504113.962
3167723.701 637163.499 504124.285
3167714.958 637153.367 504119.981
3167720.655 637169.786 504129.723
3167715.656 637161.885 504125.704
3167719.339 637156.940 504120.991
3167716.828 637152.783 504118.892
3167720.365 637157.081 504120.986
3167716.044 637163.983 504127.073
3167715.835 637154.004 504120.030
3167719.287 637147.225 504114.227
3167719.963 637148.120 504114.536
3167735.962 637151.538 504111.462
3167728.122 637151.492 504114.171
3167731.088 637152.637 504113.927
3167730.771 637151.089 504113.037
3167726.943 637147.305 504111.638
3167726.261 637149.767 504113.607
3167724.240 637146.697 504112.065
3167738.211 637149.208 504109.043
3167740.999 637146.780 504106.344
3167736.873 637152.720 504112.046
3167743.799 637149.558 504107.308
3167739.732 637149.091 504108.361
3167747.362 637151.340 504107.261
3167723.128 637174.626 504132.255
3167719.185 637175.953 504134.464
3167713.934 637171.715 504133.077
3167711.936 637163.799 504128.223
3167710.893 637159.326 504125.452
3167715.316 637177.432 504136.637
3167703.806 637175.228 504138.378
3167703.669 637170.083 504134.995
3167694.505 637161.133 504131.324
3167700.604 637164.106 504131.656
3167693.904 637163.198 504133.028
3167691.774 637164.692 504134.465
3167695.419 637159.163 504129.771
3167698.897 637171.453 504137.304
3167688.434 637160.514 504132.589
3167691.499 637163.838 504134.048
3167689.304 637166.235 504136.241
3167701.751 637163.718 504131.164
3167686.689 637157.020 504130.619
3167686.542 637163.049 504134.821
3167685.821 637163.839 504135.467
3167684.583 637168.536 504139.048
3167686.567 637172.232 504141.138
3167684.076 637171.012 504140.904
3167699.424 637178.108 504141.682
3167697.983 637173.460 504138.900
3167695.878 637179.472 504143.502
3167696.007 637180.145 504143.979
3167697.156 637174.672 504139.922
3167683.201 637172.687 504142.248
3167690.647 637181.607 504146.481
3167692.402 637174.851 504141.306
3167689.446 637173.411 504141.098
3167699.207 637159.673 504129.028
3167699.704 637156.871 504127.022
3167698.397 637152.734 504124.477
3167696.254 637149.422 504122.718
3167688.328 637139.379 504117.945
3167691.547 637150.767 504125.006
3167690.086 637149.544 504124.624
3167695.501 637147.378 504121.567
3167694.092 637142.859 504118.783
3167695.413 637143.102 504118.642
3167696.418 637146.128 504120.491
3167690.420 637141.166 504118.683
3167684.782 637147.332 504124.461
3167686.356 637136.179 504116.290
3167687.415 637148.929 504124.815
3167686.641 637146.169 504123.174
3167693.214 637135.646 504114.047
3167691.920 637135.495 504114.258
3167712.356 637150.071 504118.515
3167708.904 637151.424 504120.517
3167699.072 637135.884 504112.514
3167701.737 637141.984 504115.977
3167701.312 637141.155 504115.504
3167701.022 637138.629 504113.838
3167701.792 637139.250 504114.058
3167700.493 637138.896 504114.192
3167702.220 637140.084 504114.525
3167701.448 637136.541 504112.312
3167700.562 637136.227 504112.351
3167698.604 637134.897 504111.945
3167705.999 637140.221 504113.569
3167711.370 637145.732 504115.698
3167715.094 637145.383 504114.294
3167713.401 637143.202 504113.242
3167677.932 637155.577 504131.948
3167683.054 637153.986 504129.473
3167679.128 637157.648 504133.007
3167682.733 637158.208 504132.502
3167678.134 637148.764 504127.178
3167684.138 637148.028 504125.075
3167679.224 637145.417 504124.595
3167682.049 637146.581 504124.686
3167679.716 637150.515 504127.946
3167665.748 637145.541 504128.109
3167671.047 637150.757 504130.295
3167668.468 637149.123 504129.804
3167678.318 637163.988 504137.621
3167676.251 637156.644 504133.021
3167675.090 637159.316 504135.245
3167672.429 637163.156 504138.512
3167673.340 637160.409 504136.419
3167674.324 637162.934 504137.837
3167674.959 637157.775 504134.199
3167663.200 637146.745 504129.546
3167664.335 637156.255 504135.870
3167665.222 637149.887 504131.218
3167660.554 637147.515 504130.637
3167662.584 637148.095 504130.693
3167664.972 637152.174 504132.854
3167669.161 637157.890 504135.696
3167663.796 637159.208 504138.034
3167666.618 637153.993 504133.695
3167660.303 637155.393 504136.175
3167669.497 637137.074 504121.288
3167674.108 637141.415 504123.108
3167664.187 637138.832 504123.769
3167675.170 637143.023 504123.918
3167667.610 637144.812 504127.091
3167668.534 637142.212 504125.026
3167672.816 637143.231 504124.723
3167671.183 637144.734 504126.138
3167681.512 637135.583 504117.166
3167679.048 637139.345 504120.427
3167683.888 637136.283 504116.985
3167676.332 637138.180 504120.264
3167670.667 637135.587 504119.967
3167673.792 637132.650 504117.091
3167672.354 637123.543 504111.169
3167679.632 637131.554 504114.860
3167677.479 637129.749 504114.112
3167669.196 637121.263 504110.303
3167671.843 637130.827 504116.301
3167669.654 637124.771 504112.624
3167669.727 637131.849 504117.515
3167675.836 637127.723 504113.172
3167674.406 637127.531 504113.367
3167666.487 637133.499 504119.502
3167663.614 637123.543 504113.311
3167664.908 637121.551 504111.544
3167666.957 637128.868 504116.137
3167663.217 637128.115 504116.556
3167666.439 637119.698 504109.923
3167660.140 637123.433 504114.041
3167666.341 637119.392 504109.770
3167660.137 637117.585 504109.932
3167659.401 637121.005 504112.514
3167687.385 637130.491 504112.054
3167686.111 637131.762 504113.234
3167682.159 637130.437 504113.317
3167682.038 637129.407 504112.705
3167683.383 637125.664 504109.754
3167684.354 637125.875 504109.629
3167687.813 637123.100 504106.756
3167690.785 637131.997 504112.130
3167689.422 637128.366 504109.933
3167689.594 637128.282 504109.851
3167690.469 637126.140 504108.116
3167678.512 637118.050 504105.701
3167669.544 637116.876 504107.161
3167676.980 637122.123 504108.907
3167663.809 637115.424 504107.558
3167677.889 637122.448 504108.902
3167673.991 637117.066 504106.172
3167679.971 637122.873 504108.703
3167681.078 637117.644 504104.721
3167658.000 637121.778 504113.417
3167657.704 637123.780 504114.925
3167658.119 637130.862 504119.737
3167660.391 637129.844 504118.477
3167652.913 637126.144 504117.796
3167655.790 637129.083 504119.167
3167657.792 637130.721 504119.718
3167664.474 637134.052 504120.353
3167658.594 637138.950 504125.215
3167653.768 637136.407 504124.672
3167655.790 637138.910 504125.838
3167657.822 637141.313 504127.116
3167657.993 637142.923 504128.348
3167653.487 637143.441 504129.579
3167649.575 637140.605 504128.632
3167653.089 637145.857 504131.340
3167654.792 637143.273 504129.199
3167647.561 637144.434 504131.673
3167648.741 637136.826 504126.543
3167650.748 637130.542 504121.293
3167647.625 637126.111 504119.041
3167643.105 637129.237 504122.620
3167650.186 637125.190 504117.730
3167640.535 637135.043 504127.154
3167640.674 637136.629 504128.250
3167637.855 637137.863 504129.795
3167637.774 637136.714 504128.939
3167642.419 637146.287 504134.070
3167644.209 637144.468 504132.432
3167639.135 637139.132 504130.218
3167654.801 637151.318 504134.704
3167657.175 637156.017 504137.333
3167657.717 637149.687 504132.934
3167650.682 637155.554 504138.522
3167658.625 637155.391 504136.558
3167646.345 637155.337 504139.366
3167644.202 637147.906 504134.697
3167643.669 637154.921 504139.618
3167653.281 637158.170 504139.719
3167651.891 637157.206 504139.422
3167650.866 637159.032 504140.906
3167653.041 637162.606 504142.841
3167659.682 637168.051 504144.977
3167660.329 637165.119 504142.834
3167648.462 637160.844 504142.639
3167656.161 637161.808 504141.573
3167649.574 637162.124 504143.257
3167663.207 637162.345 504140.210
3167664.296 637172.603 504146.896
3167637.697 637148.306 504136.437
3167632.809 637148.205 504137.357
3167635.824 637151.558 504139.013
3167650.296 637162.874 504143.601
3167635.462 637162.393 504146.392
3167638.117 637155.367 504141.117
3167649.406 637162.680 504143.753
3167629.951 637152.600 504140.866
3167634.873 637163.412 504147.295
3167637.044 637155.405 504141.327
3167637.383 637160.917 504145.020
3167644.534 637162.541 504144.659
3167642.567 637163.043 504145.419
3167632.796 637157.399 504143.569
3167653.370 637171.196 504148.541
3167654.467 637165.775 504144.637
3167649.074 637170.171 504148.776
3167639.318 637171.923 504152.101
3167643.568 637164.726 504146.244
3167651.644 637167.389 504146.370
3167647.947 637173.390 504151.218
3167646.563 637164.040 504145.196
3167641.748 637168.014 504148.942
3167666.290 637169.848 504144.616
3167667.460 637166.908 504142.274
3167647.371 637176.619 504153.537
3167642.099 637175.097 504153.669
3167646.475 637176.241 504153.455
3167658.796 637174.637 504149.577
3167663.379 637173.929 504148.113
3167671.289 637178.311 504149.097
3167666.929 637178.209 504150.073
3167673.090 637179.049 504149.190
3167661.071 637177.840 504151.243
3167659.488 637178.095 504151.797
3167671.259 637173.174 504145.561
3167660.848 637179.550 504152.512
3167671.823 637178.810 504149.284
3167664.463 637176.342 504149.408
3167642.655 637176.629 504154.548
3167657.806 637179.054 504152.820
3167655.215 637179.801 504153.956
3167669.371 637191.398 504158.645
3167651.369 637183.239 504157.119
3167659.655 637184.058 504155.811
3167669.953 637188.841 504156.570
3167669.887 637182.964 504152.597
3167661.592 637189.405 504159.018
3167671.764 637185.249 504153.745
3167673.531 637190.501 504156.885
3167646.289 637181.551 504157.069
3167650.089 637184.702 504158.442
3167679.046 637182.081 504149.688
3167680.248 637178.715 504146.978
3167677.556 637182.663 504150.466
3167673.210 637174.385 504145.813
3167681.639 637183.191 504149.843
3167677.771 637175.767 504145.773
3167674.429 637178.065 504148.121
3167680.821 637173.698 504143.458
3167682.984 637174.454 504143.505
3167674.550 637172.409 504144.183
3167686.945 637189.080 504152.452
3167684.498 637187.324 504151.878
3167689.343 637186.101 504149.737
3167688.092 637185.777 504149.900
3167685.285 637190.344 504153.728
3167678.772 637200.912 504162.563
3167682.364 637193.086 504156.458
3167678.560 637193.700 504157.689
3167682.471 637201.347 504162.049
3167682.907 637210.199 504167.907
3167680.156 637211.364 504169.528
3167688.132 637207.856 504165.045
3167685.865 637206.100 504164.469
3167690.653 637210.594 504166.339
3167691.435 637205.764 504162.755
3167672.038 637206.340 504167.966
3167675.043 637202.952 504164.938
3167665.584 637199.751 504165.053
3167666.747 637196.178 504162.411
3167667.963 637195.464 504161.618
3167669.474 637211.518 504172.165
3167680.854 637219.068 504174.468
3167676.253 637213.515 504171.838
3167680.498 637224.134 504178.055
3167673.998 637225.026 504180.191
3167662.052 637210.002 504172.822
3167675.004 637223.356 504178.778
3167664.118 637215.136 504175.835
3167665.950 637214.651 504175.119
3167678.833 637228.933 504181.827
3167660.931 637222.721 504181.599
3167656.546 637218.219 504179.551
3167657.320 637217.994 504179.261
3167672.516 637230.925 504184.579
3167657.758 637205.901 504171.019
3167660.993 637209.046 504172.368
3167685.611 637227.380 504178.897
3167690.285 637222.703 504174.661
3167692.797 637225.344 504175.772
3167688.434 637224.127 504176.065
3167687.722 637228.517 504179.123
3167693.613 637234.995 504182.146
3167679.555 637236.068 504186.315
3167671.940 637236.708 504188.613
3167667.893 637240.598 504192.130
3167666.324 637237.554 504190.363
3167658.983 637234.848 504190.190
3167664.174 637239.917 504192.558
3167653.683 637235.858 504191.884
3167667.550 637246.240 504196.042
3167651.721 637241.694 504196.223
3167654.562 637227.774 504186.342
3167661.224 637230.994 504187.169
3167646.007 637229.107 504188.959
3167649.882 637216.701 504180.042
3167646.839 637224.793 504185.879
3167650.195 637231.470 504189.749
3167648.471 637220.428 504182.729
3167648.199 637242.328 504197.250
3167643.183 637239.898 504196.662
3167638.567 637233.835 504193.469
3167643.299 637247.710 504201.745
3167634.078 637238.472 504197.334
3167638.976 637245.820 504201.424
3167642.941 637242.460 504198.414
3167638.701 637230.805 504191.442
3167631.273 637239.445 504198.502
3167624.375 637242.652 504201.759
3167624.170 637232.122 504194.884
3167627.762 637240.961 504200.096
3167631.257 637235.774 504195.993
3167623.418 637236.155 504197.693
3167621.480 637236.889 504198.608
3167632.337 637253.127 504207.319
3167628.261 637229.842 504192.607
3167627.067 637229.563 504192.668
3167629.329 637225.646 504189.739
3167635.256 637222.603 504186.680
3167636.423 637226.983 504189.300
3167648.098 637249.946 504202.433
3167651.817 637250.141 504201.823
3167641.114 637266.397 504214.618
3167628.442 637268.792 504218.308
3167632.846 637262.325 504213.231
3167629.226 637268.159 504217.753
3167626.766 637267.967 504217.987
3167622.131 637269.195 504219.640
3167624.056 637254.029 504209.453
3167611.094 637254.614 504211.976
3167618.965 637254.616 504210.642
3167611.944 637259.117 504214.699
3167615.561 637260.068 504214.804
3167618.126 637253.445 504209.887
3167612.526 637245.180 504205.604
3167619.152 637252.946 504209.400
3167604.926 637248.143 504208.691
3167603.802 637259.265 504215.940
3167614.006 637261.937 504216.219
3167617.541 637263.255 504216.531
3167612.265 637263.898 504217.734
3167623.513 637276.620 504224.210
3167618.832 637273.506 504222.956
3167599.623 637266.777 504221.589
3167611.619 637280.880 504228.976
3167592.475 637257.316 504216.283
3167593.777 637257.115 504215.953
3167601.008 637257.751 504215.376
3167599.133 637258.189 504216.134
3167597.449 637255.096 504214.221
3167598.585 637251.212 504211.682
3167601.837 637256.879 504214.872
3167591.532 637243.778 504207.782
3167590.309 637245.576 504209.083
3167588.030 637248.961 504211.545
3167586.266 637255.761 504216.284
3167583.465 637261.786 504220.494
3167589.450 637257.681 504216.977
3167588.656 637260.246 504218.746
3167583.695 637261.381 504220.165
3167588.029 637270.047 504225.193
3167578.522 637276.558 504230.636
3167570.425 637271.955 504228.549
3167580.372 637264.133 504222.363
3167574.643 637269.174 504226.269
3167572.119 637271.823 504228.329
3167585.148 637273.706 504227.979
3167567.467 637273.772 504230.106
3167581.229 637273.779 504228.506
3167593.022 637280.187 504231.172
3167576.435 637280.754 504233.569
3167587.013 637286.083 504235.733
3167582.664 637284.763 504235.444
3167602.685 637281.382 504230.607
3167598.401 637281.595 504231.339
3167598.178 637286.138 504234.315
3167575.569 637261.022 504220.837
3167566.635 637264.754 504224.369
3167552.842 637253.994 504219.007
3167547.126 637263.204 504225.306
3167558.475 637259.084 504221.504
3167562.355 637263.243 504223.884
3167563.081 637257.266 504220.048
3167563.591 637251.332 504216.120
3167568.744 637247.249 504212.818
3167565.037 637281.034 504235.057
3167561.423 637268.876 504227.539
3167568.291 637283.526 504236.301
3167553.793 637266.789 504227.035
3167558.684 637271.001 504229.233
3167550.945 637276.444 504233.496
3167543.724 637278.154 504235.292
3167532.562 637278.170 504236.234
3167531.068 637273.228 504233.172
3167542.130 637272.960 504232.067
3167529.976 637269.819 504231.088
3167541.273 637270.518 504230.603
3167534.871 637283.946 504239.712
3167545.009 637282.175 504237.718
3167563.557 637287.745 504239.537
3167552.650 637281.939 504236.853
3167534.208 637282.182 504238.659
3167554.066 637286.371 504239.558
3167534.210 637282.925 504239.085
3167546.142 637285.643 504239.857
3167558.539 637283.198 504237.111
3167533.745 637281.919 504238.531
3167555.453 637290.716 504242.272
3167536.450 637289.192 504242.948
3167548.038 637291.941 504243.749
3167541.078 637261.248 504224.766
3167543.899 637266.329 504227.858
3167542.074 637257.867 504222.502
3167541.449 637256.409 504221.717
3167529.027 637267.682 504229.764
3167528.344 637265.821 504228.612
3167531.144 637262.907 504226.640
3167527.321 637268.644 504230.603
3167528.565 637266.617 504229.229
3167533.264 637253.700 504220.541
3167537.725 637252.501 504219.435
3167529.694 637269.479 504230.862
3167518.685 637279.588 504238.094
3167518.284 637278.772 504237.604
3167517.342 637275.832 504235.785
3167516.767 637274.335 504234.878
3167516.156 637272.691 504233.875
3167524.711 637276.190 504235.518
3167519.948 637282.258 504239.727
3167519.402 637281.634 504239.335
3167520.888 637285.172 504241.475
3167519.430 637280.989 504238.939
3167510.664 637266.315 504230.243
3167508.061 637265.504 504229.896
3167511.626 637265.373 504229.609
3167513.544 637261.303 504226.852
3167515.204 637269.701 504232.017
3167514.390 637267.251 504230.489
3167520.572 637259.246 504225.152
3167518.594 637258.373 504224.667
3167530.026 637248.175 504217.262
3167524.847 637245.676 504216.063
3167504.163 637245.306 504217.400
3167526.834 637242.780 504214.070
3167500.083 637256.140 504224.458
3167502.151 637268.373 504232.069
3167505.821 637272.036 504234.044
3167507.681 637280.296 504239.202
3167500.376 637275.842 504236.768
3167488.979 637275.643 504237.159
3167493.276 637276.656 504237.584
3167489.754 637279.680 504239.619
3167484.351 637275.915 504237.430
3167509.604 637288.808 504244.472
3167502.657 637285.941 504243.067
3167495.530 637286.810 504243.912
3167489.529 637273.673 504236.010
3167488.178 637268.953 504233.025
3167484.442 637268.102 504232.703
3167495.866 637265.662 504230.571
3167480.651 637273.692 504236.168
3167479.974 637272.628 504235.655
3167486.231 637261.778 504228.700
3167481.395 637266.505 504231.800
3167483.767 637252.438 504222.929
3167492.815 637256.301 504224.903
3167476.027 637256.846 504225.912
3167491.968 637255.898 504224.637
3167488.763 637246.733 504219.114
3167479.857 637249.842 504221.461
3167481.109 637242.281 504216.599
3167495.233 637229.023 504208.131
3167478.345 637231.685 504210.090
3167490.469 637228.235 504207.886
3167474.884 637240.044 504215.472
3167470.713 637236.148 504213.127
3167472.964 637244.783 504218.397
3167475.162 637231.091 504209.775
3167468.331 637226.955 504207.490
3167475.209 637219.530 504202.620
3167488.033 637222.160 504203.622
3167466.124 637218.485 504202.196
3167469.909 637220.016 504203.111
3167464.142 637210.967 504197.539
3167470.098 637210.798 504197.329
3167451.459 637229.528 504209.396
3167452.735 637234.235 504212.328
3167454.340 637240.386 504216.136
3167448.386 637233.638 504212.047
3167449.934 637223.720 504205.804
3167448.620 637218.836 504202.821
3167434.707 637217.468 504202.100
3167431.254 637215.056 504200.586
3167429.584 637217.084 504201.847
3167444.964 637219.353 504203.202
3167436.877 637211.296 504198.270
3167439.087 637220.348 504203.801
3167447.446 637214.562 504200.167
3167430.953 637227.893 504208.548
3167430.000 637228.888 504209.158
3167428.187 637222.336 504205.062
3167432.111 637206.595 504195.281
3167441.869 637206.496 504195.420
3167445.234 637205.713 504194.641
3167439.752 637209.252 504196.734
3167437.711 637230.193 504209.979
3167444.959 637231.608 504210.786
3167441.938 637232.263 504211.220
3167462.462 637204.723 504193.750
3167471.703 637205.825 504194.144
3167482.742 637208.383 504195.285
3167479.274 637207.016 504194.487
3167459.829 637196.164 504188.476
3167478.018 637192.113 504185.104
3167460.676 637198.886 504190.115
3167465.269 637201.373 504191.515
3167461.546 637201.708 504191.814
3167468.370 637192.819 504186.027
3167465.714 637193.316 504186.436
3167443.082 637197.114 504189.404
3167425.136 637201.661 504192.369
3167434.173 637200.011 504191.339
3167429.756 637196.791 504189.287
3167426.984 637204.148 504193.840
3167425.135 637204.434 504194.029
3167418.842 637207.163 504195.711
3167413.438 637212.659 504199.051
3167425.195 637210.712 504197.904
3167424.506 637210.303 504197.655
3167420.455 637215.947 504201.089
3167423.528 637213.116 504199.396
3167419.594 637216.490 504201.464
3167422.542 637216.991 504201.784
3167423.590 637218.554 504202.678
3167424.765 637219.412 504203.331
3167421.174 637218.556 504202.713
3167411.545 637219.507 504203.180
3167415.415 637227.586 504208.219
3167420.935 637226.120 504207.379
3167416.046 637226.205 504207.321
3167419.978 637223.768 504205.852
3167419.712 637227.335 504208.130
3167420.688 637234.767 504212.687
3167422.792 637234.666 504212.662
3167414.321 637232.879 504211.437
3167405.605 637237.357 504213.939
3167408.556 637234.897 504212.512
3167395.139 637239.370 504214.795
3167394.037 637243.241 504217.102
3167403.053 637243.844 504217.760
3167397.991 637248.115 504220.352
3167402.550 637242.530 504217.044
3167406.251 637239.912 504215.564
3167398.985 637245.012 504218.329
3167405.531 637251.556 504222.687
3167411.827 637250.032 504222.345
3167430.351 637236.484 504213.769
3167425.732 637235.038 504212.861
3167425.637 637245.351 504219.274
3167415.867 637247.651 504221.114
3167412.894 637245.753 504219.862
3167418.554 637248.384 504221.461
3167421.870 637247.480 504220.873
3167416.807 637250.556 504222.803
3167432.177 637251.816 504223.338
3167420.797 637252.780 504223.802
3167431.213 637248.495 504221.294
3167423.989 637250.789 504222.626
3167428.318 637258.089 504227.144
3167428.026 637255.974 504225.925
3167432.043 637254.211 504224.818
3167414.730 637254.259 504224.973
3167423.067 637255.593 504225.551
3167427.883 637249.088 504221.668
3167428.853 637245.545 504219.498
3167430.740 637240.224 504216.112
3167427.536 637246.118 504219.804
3167438.833 637249.807 504222.046
3167435.074 637241.394 504216.855
3167431.240 637262.380 504229.896
3167422.059 637266.467 504232.267
3167403.479 637259.204 504227.312
3167412.285 637258.771 504227.352
3167400.813 637256.720 504225.749
3167410.593 637259.988 504227.955
3167399.497 637260.708 504228.013
3167409.749 637264.609 504230.835
3167415.747 637269.699 504234.109
3167410.024 637266.042 504231.675
3167394.458 637277.531 504238.216
3167407.404 637277.011 504238.405
3167404.531 637268.238 504232.876
3167400.839 637280.176 504240.109
3167413.518 637276.196 504238.088
3167404.065 637275.225 504237.167
3167396.895 637267.707 504232.379
3167398.552 637270.818 504234.302
3167408.184 637274.009 504236.519
3167401.429 637279.698 504239.876
3167388.583 637270.937 504233.914
3167392.781 637254.614 504224.159
3167395.699 637262.014 504228.784
3167391.351 637267.717 504231.990
3167428.719 637268.324 504233.576
3167420.022 637270.407 504234.705
3167416.736 637272.441 504235.817
3167420.372 637276.819 504238.570
3167421.853 637273.745 504236.787
3167428.163 637275.528 504238.001
3167428.045 637277.938 504239.531
3167438.835 637274.866 504237.667
3167431.150 637272.867 504236.380
3167436.284 637263.015 504230.320
3167437.772 637261.509 504229.313
3167434.148 637266.119 504232.197
3167426.721 637281.568 504241.724
3167424.848 637285.260 504244.067
3167437.729 637277.860 504239.464
3167437.956 637282.898 504242.643
3167427.046 637281.748 504241.877
3167436.251 637279.156 504240.273
3167439.247 637283.600 504242.883
3167435.354 637284.398 504243.421
3167441.294 637287.849 504245.800
3167420.850 637292.904 504248.688
3167432.348 637284.582 504243.692
3167441.255 637289.275 504246.517
3167421.945 637288.695 504246.176
3167436.943 637284.593 504243.700
3167434.471 637285.835 504244.503
3167442.918 637277.124 504239.089
3167445.564 637287.150 504245.344
3167445.398 637284.688 504243.776
3167444.128 637286.117 504244.505
3167445.038 637275.267 504237.874
3167438.899 637261.794 504229.551
3167440.014 637263.138 504230.433
3167441.179 637263.000 504230.305
3167437.942 637261.665 504229.417
3167445.995 637265.951 504231.911
3167440.361 637273.442 504236.797
3167416.724 637287.422 504245.267
3167412.653 637288.145 504245.577
3167416.517 637285.302 504243.877
3167410.538 637286.658 504244.523
3167405.997 637293.514 504248.636
3167409.080 637291.264 504247.360
3167404.102 637287.943 504245.171
3167397.106 637285.746 504243.364
3167399.720 637293.872 504248.533
3167404.275 637291.002 504246.983
3167396.924 637295.586 504249.508
3167412.713 637293.151 504248.707
3167390.272 637284.609 504242.311
3167393.492 637294.924 504248.898
3167395.084 637290.072 504246.003
3167393.460 637285.296 504242.987
3167391.542 637279.534 504239.382
3167425.152 637299.697 504252.986
3167420.266 637296.831 504251.142
3167417.222 637302.483 504254.502
3167408.294 637300.453 504253.031
3167415.465 637301.467 504253.869
3167408.341 637303.898 504255.067
3167413.452 637305.079 504256.019
3167402.736 637303.320 504254.443
3167398.724 637300.955 504252.912
3167386.996 637309.062 504257.160
3167385.928 637306.093 504255.224
3167384.933 637303.417 504253.593
3167381.506 637303.147 504253.066
3167388.126 637312.207 504259.101
3167396.925 637305.890 504255.704
3167389.915 637305.883 504255.404
3167384.057 637311.315 504258.191
3167402.422 637311.999 504259.868
3167400.843 637307.391 504256.958
3167394.070 637319.500 504263.927
3167403.884 637316.185 504262.479
3167390.390 637318.544 504263.122
3167400.779 637318.351 504263.607
3167389.308 637315.570 504261.280
3167410.745 637307.870 504257.647
3167406.293 637314.615 504261.565
3167417.627 637307.892 504257.982
3167412.723 637313.720 504261.323
3167383.230 637298.243 504250.312
3167386.274 637293.997 504247.854
3167379.084 637295.430 504248.230
3167381.331 637292.378 504246.585
3167380.496 637290.232 504245.230
3167379.734 637288.347 504244.062
3167378.724 637285.551 504242.205
3167376.498 637287.117 504242.991
3167383.067 637283.606 504241.234
3167373.733 637278.179 504237.389
3167390.056 637275.201 504236.595
3167377.198 637281.022 504239.448
3167375.123 637275.254 504235.697
3167376.053 637277.768 504237.352
3167387.362 637275.352 504236.396
3167371.222 637300.831 504250.980
3167369.179 637294.299 504246.789
3167360.512 637296.154 504247.244
3167367.677 637289.744 504243.960
3167365.559 637282.953 504239.662
3167373.693 637308.799 504255.803
3167369.249 637325.429 504265.570
3167366.790 637317.305 504260.434
3167360.109 637322.006 504262.593
3167364.110 637312.956 504257.531
3167367.304 637322.932 504263.778
3167365.799 637318.280 504260.863
3167355.514 637306.729 504253.080
3167351.775 637310.086 504254.686
3167362.109 637306.515 504253.583
3167363.801 637307.302 504254.280
3167356.708 637315.067 504257.996
3167357.962 637314.940 504258.255
3167376.522 637318.152 504261.832
3167386.129 637317.780 504262.213
3167378.966 637326.051 504266.744
3167360.687 637302.151 504250.828
3167359.384 637298.153 504248.105
3167351.981 637298.459 504247.713
3167347.346 637294.431 504244.829
3167353.201 637299.017 504248.251
3167350.742 637290.752 504243.051
3167357.899 637293.571 504245.291
3167354.296 637282.085 504238.197
3167357.200 637284.925 504240.197
3167356.146 637288.022 504241.905
3167348.317 637282.620 504237.974
3167347.529 637282.809 504237.875
3167343.914 637300.410 504247.978
3167342.759 637306.356 504251.420
3167339.452 637294.721 504244.166
3167342.003 637294.072 504244.078
3167345.217 637304.505 504250.621
3167344.267 637289.162 504241.343
3167346.701 637297.442 504246.642
3167350.051 637309.055 504253.729
3167345.999 637306.635 504251.997
3167347.185 637310.263 504254.267
3167350.897 637322.531 504261.970
3167348.931 637315.995 504257.887
3167353.863 637322.431 504262.117
3167355.865 637324.454 504263.678
3167336.566 637324.707 504261.472
3167348.020 637324.489 504262.677
3167345.385 637315.403 504257.009
3167338.482 637313.560 504255.299
3167334.977 637326.686 504262.364
3167342.088 637326.445 504263.215
3167332.530 637324.509 504260.961
3167340.313 637323.686 504261.430
3167328.600 637310.107 504252.006
3167336.583 637310.266 504252.996
3167328.203 637319.776 504257.647
3167330.851 637311.623 504253.104
3167332.992 637311.800 504253.501
3167328.890 637321.623 504258.787
3167333.229 637298.277 504245.453
3167334.029 637297.406 504245.220
3167329.040 637297.433 504244.630
3167327.531 637299.625 504245.574
3167341.433 637279.417 504235.266
3167339.267 637285.423 504238.684
3167340.306 637288.494 504240.515
3167338.319 637282.647 504236.875
3167331.226 637287.516 504238.988
3167336.518 637284.453 504237.650
3167330.343 637288.063 504239.005
3167324.881 637282.220 504235.084
3167324.710 637289.580 504239.394
3167317.339 637301.374 504245.549
3167317.951 637305.481 504247.825
3167320.145 637300.770 504245.416
3167314.295 637301.834 504245.240
3167323.467 637301.332 504246.132
3167323.726 637292.018 504240.679
3167320.973 637292.425 504240.718
3167318.631 637294.379 504241.416
3167312.626 637295.621 504241.370
3167306.838 637283.819 504233.702
3167304.313 637283.643 504233.165
3167309.673 637296.828 504241.590
3167307.207 637297.469 504241.652
3167302.681 637288.967 504236.326
3167313.409 637286.678 504236.342
3167315.006 637281.436 504233.283
3167298.740 637285.079 504233.228
3167297.281 637285.192 504233.049
3167293.757 637293.785 504237.661
3167297.423 637293.753 504237.939
3167307.799 637277.272 504229.970
3167311.010 637278.944 504231.488
3167307.853 637277.113 504229.898
3167321.268 637277.111 504231.660
3167304.533 637277.146 504229.646
3167301.152 637274.001 504227.384
3167292.913 637272.862 504225.318
3167290.660 637273.555 504225.482
3167286.178 637280.176 504228.510
3167296.933 637279.160 504229.817
3167291.136 637271.098 504224.261
3167293.793 637272.381 504225.205
3167287.711 637281.217 504229.463
3167292.422 637281.049 504230.290
3167300.129 637276.787 504228.701
3167291.908 637283.597 504231.429
3167327.512 637278.095 504232.899
3167328.624 637278.422 504233.405
3167286.556 637286.740 504232.472
3167284.878 637284.473 504230.847
3167324.652 637317.170 504255.635
3167321.978 637318.800 504256.147
3167325.241 637319.879 504257.173
3167318.130 637316.636 504254.385
3167319.829 637322.913 504258.206
3167322.842 637323.917 504259.228
3167328.060 637341.934 504270.485
3167327.397 637341.006 504269.766
3167330.185 637338.370 504268.523
3167332.748 637335.760 504267.412
3167320.561 637338.630 504267.415
3167318.722 637339.656 504267.679
3167324.411 637340.700 504269.211
3167335.407 637346.994 504274.447
3167338.515 637339.481 504270.304
3167344.530 637334.917 504268.487
3167343.747 637335.898 504268.843
3167338.704 637347.552 504275.119
3167331.447 637342.947 504271.577
3167340.484 637338.963 504270.471
3167346.970 637343.368 504273.745
3167349.053 637350.459 504278.162
3167359.041 637335.429 504270.584
3167355.906 637339.612 504272.616
3167358.530 637348.588 504278.224
3167353.204 637330.336 504266.830
3167360.378 637327.780 504265.923
3167361.968 637345.422 504276.701
3167372.306 637335.705 504272.038
3167369.662 637330.661 504268.560
3167365.032 637338.490 504272.962
3167362.710 637330.781 504268.169
3167389.119 637327.509 504268.400
3167408.364 637329.048 504270.496
3167407.133 637325.654 504268.384
3167409.935 637333.593 504273.335
3167396.817 637337.720 504275.086
3167395.234 637333.071 504272.329
3167393.682 637328.431 504269.334
3167398.162 637341.603 504277.526
3167405.583 637321.162 504265.556
3167391.949 637323.189 504266.047
3167412.668 637317.628 504263.592
3167427.426 637305.725 504256.834
3167421.942 637317.316 504263.756
3167420.159 637315.441 504262.599
3167424.981 637313.747 504261.619
3167418.529 637321.190 504266.011
3167430.132 637307.852 504258.106
3167414.984 637320.523 504265.632
3167427.183 637317.918 504264.337
3167423.990 637308.249 504258.293
3167430.265 637327.176 504270.033
3167417.606 637328.486 504270.575
3167423.593 637326.009 504269.216
3167419.365 637333.631 504273.900
3167432.974 637322.883 504267.415
3167426.528 637334.902 504274.737
3167433.744 637337.703 504276.493
3167436.405 637320.952 504266.302
3167447.810 637329.365 504271.458
3167446.026 637330.946 504272.600
3167452.068 637320.138 504265.862
3167441.778 637327.390 504270.304
3167444.975 637317.644 504264.342
3167447.106 637333.112 504273.758
3167452.998 637325.379 504268.922
3167437.596 637337.082 504276.247
3167442.250 637338.997 504277.557
3167444.770 637314.714 504262.397
3167445.022 637309.366 504259.197
3167443.672 637307.786 504258.030
3167450.165 637312.878 504261.214
3167444.413 637306.951 504257.524
3167436.290 637311.643 504260.465
3167437.640 637308.000 504258.302
3167451.028 637311.768 504260.650
3167445.494 637310.803 504259.894
3167441.999 637305.463 504256.599
3167446.840 637304.528 504256.219
3167444.954 637304.316 504255.995
3167442.553 637291.999 504248.196
3167444.470 637291.862 504248.237
3167440.249 637303.403 504255.443
3167433.793 637302.665 504255.035
3167436.434 637301.191 504254.113
3167445.920 637302.796 504254.919
3167445.689 637293.305 504249.195
3167447.030 637298.957 504252.499
3167441.887 637302.732 504254.921
3167449.579 637294.165 504249.528
3167438.129 637294.350 504249.762
3167429.985 637301.099 504254.031
3167431.021 637302.689 504254.910
3167453.273 637310.574 504259.751
3167453.199 637308.363 504258.486
3167455.408 637302.898 504254.962
3167458.084 637314.429 504262.107
3167475.610 637311.657 504260.191
3167473.782 637302.750 504254.567
3167472.626 637305.930 504256.595
3167471.125 637300.096 504252.914
3167470.701 637299.041 504252.292
3167462.295 637295.934 504250.520
3167467.884 637319.551 504265.226
3167476.830 637318.718 504264.547
3167467.071 637316.720 504263.449
3167475.945 637318.151 504264.162
3167474.669 637314.162 504261.696
3167476.697 637317.299 504263.646
3167460.790 637326.078 504269.384
3167476.903 637321.558 504266.272
3167476.672 637319.694 504265.185
3167475.338 637316.292 504263.045
3167477.313 637321.692 504266.432
3167468.849 637323.064 504267.479
3167462.461 637332.939 504273.646
3167457.023 637327.234 504270.092
3167479.926 637311.143 504259.703
3167485.901 637298.558 504251.652
3167477.415 637299.343 504252.373
3167487.550 637306.430 504256.560
3167500.208 637307.849 504257.036
3167491.895 637305.488 504255.834
3167482.809 637306.006 504256.416
3167494.942 637305.462 504255.707
3167493.891 637300.241 504252.490
3167489.132 637314.839 504261.855
3167494.409 637315.326 504261.974
3167489.936 637319.103 504264.483
3167495.918 637310.372 504258.784
3167485.772 637319.661 504264.992
3167488.416 637310.953 504259.374
3167497.815 637319.973 504264.769
3167496.755 637314.701 504261.465
3167489.044 637294.216 504248.828
3167480.355 637294.565 504249.293
3167482.674 637323.993 504267.770
3167496.505 637323.388 504266.992
3167469.974 637296.642 504250.790
3167472.033 637294.200 504249.227
3167452.577 637290.649 504247.309
3167469.028 637293.262 504248.686
3167468.176 637290.304 504246.782
3167467.887 637289.838 504246.576
3167466.495 637284.469 504243.218
3167470.254 637285.522 504243.772
3167468.448 637276.736 504238.332
3167483.735 637288.480 504245.366
3167492.457 637292.615 504247.697
3167492.955 637295.509 504249.578
3167491.117 637286.194 504243.699
3167475.097 637288.398 504245.529
3167476.887 637277.946 504238.891
3167478.434 637285.443 504243.627
3167486.444 637283.995 504242.469
3167472.464 637276.083 504237.853
3167482.308 637281.578 504241.080
3167463.018 637272.062 504235.670
3167463.768 637274.428 504237.070
3167451.147 637284.877 504243.675
3167454.503 637272.405 504235.982
3167457.217 637270.991 504235.107
3167461.941 637268.266 504233.257
3167450.094 637266.183 504232.163
3167460.718 637263.823 504230.428
3167459.733 637260.418 504228.399
3167459.103 637258.569 504227.315
3167456.301 637248.093 504220.901
3167452.686 637251.815 504223.199
3167458.090 637255.040 504225.037
3167440.999 637257.749 504227.063
3167440.367 637252.822 504224.052
3167449.120 637249.286 504221.704
3167447.175 637253.987 504224.631
3167441.522 637246.569 504220.101
3167444.540 637243.057 504217.893
3167436.560 637238.401 504215.000
3167437.971 637242.431 504217.515
3167431.311 637232.004 504211.165
3167504.452 637294.066 504248.158
3167497.887 637297.396 504250.493
3167506.786 637307.549 504256.523
3167506.167 637304.229 504254.494
3167506.036 637302.898 504253.629
3167505.681 637300.650 504252.173
3167513.099 637304.460 504254.261
3167511.702 637298.049 504250.288
3167505.365 637298.579 504250.941
3167508.180 637314.058 504260.607
3167502.584 637318.537 504263.661
3167508.339 637315.504 504261.505
3167526.986 637305.985 504254.348
3167516.169 637318.417 504262.969
3167514.822 637312.187 504259.030
3167526.726 637304.209 504253.278
3167508.892 637322.569 504266.009
3167508.592 637320.529 504264.655
3167509.653 637326.497 504268.441
3167517.442 637324.339 504266.629
3167509.043 637321.586 504265.352
3167510.028 637324.831 504267.333
3167510.154 637324.552 504267.181
3167509.495 637321.045 504264.976
3167499.289 637327.000 504269.199
3167487.897 637329.694 504271.215
3167491.675 637327.382 504269.658
3167471.538 637334.373 504274.446
3167463.977 637339.080 504277.429
3167454.671 637338.983 504277.555
3167452.174 637339.646 504277.972
3167456.091 637339.071 504277.525
3167460.494 637342.557 504279.712
3167461.195 637340.927 504278.757
3167459.358 637342.219 504279.579
3167449.362 637350.883 504284.938
3167443.616 637355.759 504287.814
3167447.728 637355.790 504287.912
3167427.888 637359.600 504289.921
3167437.090 637347.854 504282.852
3167433.488 637356.256 504288.020
3167430.076 637345.771 504281.424
3167417.929 637356.739 504287.794
3167424.386 637348.741 504283.186
3167422.009 637341.562 504278.621
3167416.537 637352.797 504285.290
3167414.625 637347.144 504281.825
3167412.486 637340.660 504277.709
3167411.314 637337.488 504275.768
3167399.987 637346.355 504280.494
3167400.887 637348.703 504282.009
3167402.491 637353.450 504284.931
3167399.566 637345.691 504280.098
3167404.012 637357.978 504287.905
3167405.957 637363.880 504291.503
3167530.476 637297.714 504248.842
3167525.086 637299.327 504250.266
3167522.095 637289.142 504243.945
3167523.195 637292.685 504246.113
3167539.019 637297.432 504248.009
3167537.975 637294.230 504246.066
3167549.466 637296.489 504246.525
3167556.800 637294.886 504244.801
3167550.195 637298.444 504247.709
3167561.666 637293.740 504243.547
3167577.997 637297.752 504244.399
3167579.674 637297.437 504243.989
3167583.189 637298.051 504243.916
3167574.053 637290.092 504239.907
3167591.035 637293.014 504239.752
3167592.819 637291.553 504238.543
3167588.146 637296.761 504242.507
3167595.955 637296.083 504241.067
3167609.692 637294.568 504238.152
3167603.583 637288.946 504235.455
3167602.170 637288.836 504235.544
3167608.948 637296.714 504239.653
3167598.498 637292.536 504238.454
3167601.444 637307.751 504247.892
3167614.189 637300.095 504241.080
3167619.811 637310.602 504247.080
3167607.032 637314.986 504251.874
3167627.350 637311.564 504246.556
3167608.226 637285.206 504232.294
3167615.259 637284.259 504230.572
3167615.241 637288.059 504233.091
3167612.146 637289.561 504234.507
3167617.987 637289.208 504233.375
3167618.156 637285.930 504231.243
3167352.611 637276.722 504234.765
3167353.911 637273.759 504233.153
3167363.290 637275.651 504235.151
3167361.149 637268.766 504230.794
3167359.398 637263.266 504227.278
3167371.489 637271.058 504232.893
3167373.621 637270.791 504232.956
3167372.566 637267.874 504231.154
3167369.505 637264.905 504229.172
3167371.451 637264.729 504229.165
3167370.584 637262.459 504227.749
3167376.263 637261.575 504227.540
3167381.256 637255.979 504224.388
3167384.011 637264.670 504229.828
3167386.744 637265.432 504230.480
3167384.899 637259.926 504227.098
3167388.106 637257.498 504225.679
3167382.788 637253.428 504222.907
3167379.636 637272.474 504234.259
3167384.902 637247.329 504219.214
3167392.974 637253.637 504223.543
3167391.022 637247.852 504219.952
3167484.071 637190.926 504184.061
3167475.173 637183.464 504179.736
3167474.358 637183.086 504179.516
3167481.370 637172.590 504172.571
3167474.530 637166.618 504169.049
3167480.538 637165.540 504168.119
3167476.118 637169.309 504170.756
3167489.385 637185.868 504180.552
3167487.234 637171.979 504171.833
3167489.449 637172.492 504171.972
3167497.040 637170.289 504170.131
3167495.494 637170.790 504170.510
3167509.508 637176.365 504173.090
3167494.588 637170.937 504170.672
3167492.755 637166.641 504168.032
3167500.768 637168.862 504168.957
3167499.334 637169.788 504169.505
3167489.855 637158.160 504162.756
3167502.019 637167.186 504167.740
3167504.862 637165.144 504166.158
3167472.033 637160.241 504165.199
3167477.257 637159.819 504164.634
3167488.197 637154.540 504160.665
3167484.251 637155.685 504161.595
3167479.452 637157.497 504163.034
3167475.123 637157.839 504163.513
3167478.123 637148.523 504157.426
3167480.028 637152.433 504159.820
3167473.566 637155.279 504161.999
3167468.799 637150.836 504159.402
3167478.684 637142.624 504153.671
3167486.229 637149.661 504157.615
3167492.873 637147.712 504155.941
3167484.622 637149.842 504157.884
3167499.296 637150.363 504157.167
3167504.353 637153.240 504158.617
3167493.454 637143.538 504153.169
3167500.554 637145.202 504153.750
3167494.235 637140.170 504151.007
3167487.912 637131.349 504145.823
3167487.047 637134.378 504147.851
3167495.318 637137.962 504149.522
3167480.824 637131.287 504146.208
3167498.770 637128.581 504143.196
3167499.774 637126.084 504141.465
3167494.091 637126.972 504142.607
3167483.124 637125.521 504142.494
3167469.320 637130.814 504146.647
3167476.253 637127.744 504144.284
3167494.002 637116.826 504136.074
3167476.231 637119.659 504139.188
3167485.090 637114.157 504135.140
3167462.059 637126.277 504144.083
3167469.301 637123.452 504141.970
3167459.641 637119.278 504139.792
3167466.197 637114.644 504136.549
3167457.812 637114.665 504136.980
3167450.635 637122.331 504142.062
3167461.924 637114.759 504136.817
3167454.426 637112.999 504136.058
3167463.317 637116.754 504138.012
3167460.423 637112.323 504135.397
3167467.374 637112.127 504134.889
3167453.436 637110.556 504134.559
3167453.947 637111.832 504135.253
3167456.218 637110.994 504134.745
3167454.560 637111.926 504135.431
3167454.534 637112.629 504135.847
3167466.748 637106.054 504131.202
3167481.743 637110.295 504132.973
3167486.186 637112.087 504133.726
3167468.716 637106.726 504131.612
3167472.839 637109.913 504133.364
3167479.789 637109.017 504132.297
3167449.804 637129.226 504146.555
3167454.975 637139.593 504152.922
3167447.071 637128.153 504145.965
3167443.641 637114.529 504137.483
3167436.253 637121.056 504141.873
3167434.662 637115.891 504138.673
3167435.147 637117.139 504139.391
3167432.856 637110.626 504135.531
3167433.299 637111.699 504136.145
3167434.076 637114.207 504137.594
3167432.102 637108.211 504134.006
3167420.272 637103.304 504131.282
3167430.949 637104.072 504131.443
3167430.088 637101.190 504129.758
3167429.493 637099.455 504128.646
3167429.277 637099.353 504128.528
3167445.030 637110.046 504134.607
3167453.739 637107.746 504132.866
3167446.440 637105.682 504131.896
3167451.722 637105.143 504131.367
3167452.723 637108.446 504133.362
3167440.184 637100.785 504129.049
3167450.891 637094.450 504124.695
3167448.661 637094.964 504125.114
3167449.424 637097.302 504126.558
3167451.882 637099.317 504127.670
3167440.571 637092.181 504123.687
3167447.406 637090.598 504122.427
3167456.074 637098.314 504126.878
3167446.252 637086.634 504119.891
3167436.889 637087.705 504120.933
3167448.576 637084.141 504118.174
3167442.501 637090.073 504122.221
3167450.662 637101.585 504129.116
3167460.442 637101.555 504128.687
3167428.624 637097.365 504127.282
3167426.927 637092.519 504124.294
3167427.554 637094.402 504125.497
3167428.076 637095.830 504126.375
3167426.462 637091.338 504123.567
3167426.141 637090.780 504123.261
3167425.405 637088.421 504121.770
3167420.555 637073.983 504112.647
3167416.630 637088.030 504121.735
3167413.556 637075.261 504113.647
3167424.783 637086.553 504120.573
3167424.507 637086.185 504120.339
3167423.937 637084.543 504119.313
3167420.787 637074.163 504112.809
3167423.091 637081.697 504117.567
3167422.423 637079.624 504116.212
3167421.638 637077.040 504114.613
3167411.999 637080.514 504116.962
3167406.036 637081.667 504117.807
3167408.706 637092.890 504124.920
3167412.379 637092.789 504124.811
3167408.983 637078.408 504115.722
3167419.957 637072.203 504111.544
3167415.694 637096.132 504126.845
3167443.803 637078.114 504114.459
3167445.042 637082.436 504117.228
3167436.073 637074.107 504112.231
3167433.215 637073.005 504111.653
3167438.768 637075.301 504112.899
3167455.097 637069.324 504108.249
3167443.967 637064.428 504105.708
3167454.841 637071.846 504109.947
3167442.337 637072.850 504111.125
3167449.881 637068.769 504108.248
3167440.264 637065.078 504106.267
3167451.577 637072.083 504110.257
3167448.286 637069.401 504108.683
3167451.057 637066.432 504106.688
3167446.026 637062.955 504104.668
3167443.570 637058.448 504101.876
3167438.307 637058.567 504102.201
3167439.159 637061.298 504103.854
3167434.503 637058.289 504102.150
3167437.719 637056.923 504101.103
3167432.136 637058.379 504102.280
3167457.367 637074.898 504111.778
3167419.291 637070.131 504110.228
3167418.694 637068.352 504109.138
3167429.708 637058.995 504102.821
3167416.079 637060.241 504104.063
3167415.367 637057.953 504102.637
3167410.115 637060.852 504104.608
3167414.671 637055.735 504101.279
3167414.192 637054.461 504100.477
3167413.416 637052.732 504097.602
3167413.909 637054.044 504100.191
3167416.810 637062.608 504105.547
3167417.227 637063.604 504106.140
3167417.959 637065.976 504107.635
3167449.524 637053.190 504098.205
3167445.842 637055.902 504100.144
3167436.544 637052.847 504098.544
3167443.786 637056.570 504100.670
3167450.044 637058.808 504101.824
3167455.240 637062.858 504104.134
3167455.373 637059.873 504102.163
3167454.314 637052.163 504097.316
3167460.560 637069.212 504107.929
3167462.648 637068.899 504107.583
3167458.716 637066.178 504106.068
3167462.931 637066.511 504106.006
3167466.081 637054.961 504098.459
3167455.757 637045.182 504092.881
3167459.655 637050.167 504095.800
3167468.062 637056.523 504099.309
3167486.024 637052.503 504095.294
3167484.242 637049.988 504093.863
3167486.738 637050.662 504093.996
3167484.219 637056.627 504098.087
3167475.609 637052.416 504096.111
3167473.914 637058.071 504099.849
3167472.272 637063.976 504103.756
3167479.455 637060.933 504101.195
3167484.975 637062.849 504102.056
3167473.050 637060.854 504101.711
3167466.528 637074.446 504110.909
3167478.034 637046.163 504091.871
3167460.088 637040.448 504089.787
3167471.725 637043.686 504090.883
3167475.827 637043.856 504090.667
3167460.979 637041.246 504090.182
3167473.598 637041.405 504089.221
3167481.467 637042.995 504089.608
3167491.023 637043.844 504089.243
3167482.538 637038.307 504084.688
3167486.572 637043.010 504089.146
3167488.264 637040.990 504086.033
3167496.541 637041.490 504087.167
3167501.641 637044.475 504088.568
3167496.933 637049.903 504092.604
3167498.289 637040.106 504086.069
3167492.616 637041.915 504087.803
3167464.397 637036.357 504086.957
3167477.174 637036.607 504084.467
3167462.088 637036.126 504087.046
3167493.103 637058.510 504098.492
3167513.596 637064.738 504100.550
3167503.757 637059.080 504097.899
3167497.914 637060.496 504099.340
3167502.377 637061.863 504099.830
3167496.281 637062.360 504100.751
3167506.947 637062.775 504099.941
3167503.463 637072.880 504106.909
3167490.510 637063.919 504102.289
